ply
format ascii 1.0
comment Created by Open3D
element vertex 1976
property double x
property double y
property double z
end_header
424.11 494.49 275.9
146.848 506.119 145.652
-48.8807 -354.977 492.668
199.758 499.325 209.51
271.71 495.614 198.669
125.93 -511.813 181.883
295.559 495.466 210.572
297.766 -494.358 202.919
-41.0712 229.343 604.46
283.132 495.649 205.201
232.096 495.312 174.487
520.202 212.412 -106.524
180.967 495.026 144.14
245.39 495.458 182.977
-53.8822 -157.76 631.771
287.122 -468.864 81.2281
200.155 498.041 276.26
495.763 317.311 -44.0078
488.462 38.1038 -177.725
297.608 495.581 212.632
262.354 -429.051 -54.4097
547.804 398.795 84.3362
519.221 -239.166 -91.3808
469.863 203.543 -140.339
377.571 -283.033 -141.747
485.676 487.253 268.261
364.412 495.66 251.149
142.128 -498.894 168.619
199.453 495.381 157.217
256.038 -490.205 374.777
18.7348 272.932 609.755
241.187 495.549 181.435
-76.6943 268.586 558.129
450.377 193.455 -156.657
174.723 495.206 142.236
249.537 445.899 -32.2105
226.403 495.588 173.678
166.179 495.225 137.726
443.798 18.065 -204.909
379.98 215.633 -185.257
558.312 173.14 -103.44
34.2654 146.386 686.803
250.458 495.467 185.822
475.014 451.32 141.7
131.944 495.962 263.776
655.578 170.481 -48.6632
343.794 487.926 437.958
155.154 496.153 275.487
124.223 -450.1 437.372
340.191 -499.666 309.296
109.831 496.025 249.061
140.768 496.027 268.343
367.079 492.489 229.926
357.992 488.803 441.955
509.444 -220.092 -108.375
145.862 -1.04002 776.612
412.095 495.691 423.633
433.858 492.423 268.953
330.875 495.084 227.633
430.023 -487.316 236.688
414.726 495.616 425.701
426.595 -260.565 -130.646
124.56 496.038 258.067
455.53 89.2039 -189.433
156.423 496.119 276.782
-44.7391 -184.417 625.752
618.55 353.003 63.8031
444.643 492.562 276.161
496.132 -183.759 -134.766
148.295 496.059 272.579
167.593 496.061 284.254
93.3917 -161.359 715.605
330.215 498.434 344.09
348.042 263.822 -173.117
115.297 -449.832 432.793
517.629 -400.647 69.2799
47.5481 -134.938 698.611
-46.1486 190.388 622.002
282.532 387.274 642.564
371.913 498.583 367.709
343.223 498.524 350.574
348.603 498.532 353.854
347.167 498.601 351.563
-26.8296 -285.633 573.533
346.436 317.732 -129.364
675.384 29.7083 -70.3774
326.319 498.418 341.918
436.589 -479.428 204.393
421.554 498.729 396.354
529.02 -339.106 -3.04462
205.367 495.945 165.167
234.571 -259.209 744.003
238.844 -459.175 -13.6906
328.023 498.462 342.13
345.523 235.733 -198.463
384.137 -161.379 -208.662
463.202 489.158 266.521
673.129 200.972 -23.7196
102.174 242.188 679.169
65.3494 506.141 287.047
434.621 489.149 249.592
486.594 488.942 279.026
256.32 493.232 170.886
443.414 342.797 -48.4739
-37.892 -22.7269 669.813
378.751 495.44 407.495
668.577 -192.672 -31.0521
106.459 253.208 674.452
282.555 493.021 184.121
277.647 492.966 180.913
482.522 -275.035 -87.7287
-54.6912 -39.1797 659.297
468.975 492.566 290.552
66.4447 503.624 284.914
277.307 496.007 347.09
347.767 503.594 305.039
88.8501 513.174 246.107
128.553 500.383 177.339
69.729 200.639 684.115
432.8 498.942 335.078
416.524 498.976 326.688
445.167 498.876 341.794
120.581 -392.354 542.242
469.43 444.304 122.147
361.317 498.823 294.007
571.112 -276.415 -35.3038
439.047 498.961 339.191
377.587 499.288 357.197
325.586 416.885 -14.1773
151.26 -148.002 753.598
412.39 498.922 323.444
391.406 498.911 311.911
234.407 498.922 220.91
342.017 498.785 282.872
388.655 498.807 308.468
146.098 496.878 259.348
463.076 301.399 -77.5262
202.041 499.292 209.049
447.788 176.201 -165.667
219.783 499.332 219.778
10.6124 -180.202 659.644
146.133 498.78 231.864
387.582 496.383 270.218
189.382 -407.795 558.017
553.415 354.107 27.6953
341.34 445.603 51.913
406.553 -291.87 -117.781
393.323 496.336 273.095
175.712 -445.632 477.809
337.845 -491.047 415.915
619.683 67.2055 -98.7274
322.525 489.723 417.155
96.5874 -347.72 585.55
150.397 498.765 234.732
341.986 510.388 283.158
393.682 -132.93 -213.251
436.255 486.76 236.098
243.584 499.142 231.161
270.578 -445.921 532.429
260.02 489.675 149.693
158.513 495.79 138.256
352.081 486.244 185.933
163.177 118.567 769.857
267.414 490.874 161.313
271.496 456.239 507.977
473.898 496.082 319.288
204.073 220.462 750.662
632.716 -3.99451 -96.3795
281.751 -446.427 537.761
354.812 499.174 297.14
223.435 485.855 111.156
170.186 495.731 144.147
373.204 365.556 -62.527
172.98 495.598 144.558
47.0111 -144.13 695.047
374.256 486.16 198.125
17.0419 316.155 572.338
544.404 89.2102 -137.899
397.468 269.21 -140.752
232.611 495.951 180.112
233.104 -294.169 715.982
478.648 424.834 87.8312
315.542 412.165 -28.4401
-101.605 122.248 616.577
371.308 173.405 -210.808
336.726 496.312 240.529
455.229 -462.526 159.52
396.311 -278.995 -134.328
385.861 488.482 459.249
309.738 486.349 162.396
166.186 495.756 142.164
235.468 499.237 227.895
330.581 486.614 175.444
548.198 390.949 72.3417
342.599 517.504 285.171
209.056 496.078 168.292
415.735 499.686 357.977
78.9063 443.492 426.979
445.066 496.238 303.556
472.831 262.868 -102.135
355.93 486.412 188.893
-70.3677 184.399 610.932
417.885 496.139 285.56
213.204 496.881 177.277
552.599 -428.976 138.821
382.695 416.834 18.4437
343.27 518.975 287.106
-129.845 54.6406 624.898
347.428 515.885 303.289
424.266 496.254 290.812
421.361 496.171 287.956
450.62 496.196 306.42
281.157 496.993 215.362
413.936 496.32 285.319
331.741 409.655 -23.6867
139.086 488.009 319.225
89.4358 302.875 626.207
166.845 496.815 151.382
75.9019 -114.585 720.945
561.802 -43.6204 -135.414
325.633 477.799 134.419
108.928 488.237 300.044
248.581 499.139 282.431
122.045 488.461 306.433
424.297 -399.046 13.1039
-21.9122 410.94 437.953
409.454 498.631 390.685
246.999 499.209 280.249
634.546 -176.913 -57.4818
145.894 -489.826 314.799
131.838 488.083 314.501
412.167 498.591 393.22
424.529 -381.842 -11.7658
461.542 410.869 53.6153
139.212 517.713 158.877
133.056 498.485 227.961
339.061 505.835 273.203
370.732 -152.7 -242.127
204.377 496.574 300.111
523.932 47.0879 -156.507
181.959 498.483 258.507
181.067 -426.782 520.312
502.07 -440.574 133.113
571.693 173.071 -95.7783
578.586 38.0025 -125.601
148.166 514.997 143.368
148.274 498.403 238.653
115.107 498.293 219.54
61.7767 408.997 482.185
370.807 495.461 402.978
112.541 498.292 217.951
220.368 -230.871 754.32
224.119 -416.471 563.976
211.957 412.094 564.356
517.543 182.015 -123.111
88.4589 256.125 662.102
331.382 496.144 375.71
353.003 498.198 363.357
394.518 498.425 385.282
319.31 394.048 -54.4704
343.961 498.179 357.957
400.588 -497.093 402.359
388.629 246.267 -162.485
549.681 281.347 -44.0112
29.9894 315.55 580.333
315.366 498.041 342.471
561.6 446.438 180.025
394.315 498.327 387.122
341.548 -275.16 -191.578
328.605 498.161 348.524
583.196 -20.7465 -125.695
353.274 355.919 -85.0762
3.37685 264.609 607.068
347.246 235.622 -192.633
467.429 -497.691 332.436
142.349 515.035 153.443
157.083 506.628 127.924
-10.7454 338.22 533.562
433.789 218.013 -152.975
269.415 480.08 110.541
198.797 -454.119 471.203
183.941 497.001 281.185
184.015 500.988 81.2768
291.563 480.191 123.67
67.7877 499.598 282.588
445.428 495.32 294.47
170.033 -444.812 476.414
154.233 498.152 132.861
410.136 -389.878 -8.69767
393.976 495.456 266.335
394.016 490.184 456.006
257.508 468.156 465.359
255.995 472.218 75.3415
243.941 480.249 96.8741
631.141 -197.904 -50.1597
460.428 495.411 303.693
63.0797 -490.016 290.743
-19.6832 398 452.523
474.532 495.208 310.109
43.0357 351.511 550.586
103.069 257.47 669.599
280.387 480.208 117.357
535.556 240.111 -81.2673
196.255 -448.26 483.651
184.963 307.231 677.034
205.42 480.174 74.6762
677.389 30.8014 -69.1093
306.423 480.178 132.151
250.295 480.142 99.9835
64.3489 -478.179 321.174
284.524 -397.766 -69.0636
162.745 -126.377 767.856
478.493 270.172 -93.4975
195.34 -495.899 297.736
604.366 193.69 -67.2247
426.096 414.988 39.977
430.661 212.434 -157.964
205.593 194.702 765.831
49.4132 305.635 600.646
400.601 495.443 269.989
403.734 287.638 -123.488
283.653 -480.117 119.947
472.472 495.112 308.195
328.282 -397.793 -43.9389
287.34 397.95 -97.6872
226.402 480.38 87.5292
124.165 -463.633 402.37
523.989 -294.815 -47.8928
496.17 -366.406 9.48532
168.57 -68.9561 784.498
514.724 300.67 -48.2514
367.849 480.431 169.078
490.427 97.8037 -167.29
492.714 -95.1017 -166.32
614.645 -195.316 -60.9235
154.883 500.482 131.735
451.135 495.27 297.322
396.753 495.403 267.501
622.671 321.348 33.2326
283.188 479.897 117.603
472.333 383.629 18.3397
210.963 -494.873 315.804
511.976 -378.287 33.8323
505.96 23.108 -168.587
604.368 -151.711 -85.498
523.234 -462.322 198.601
636.247 -162.916 -62.4399
154.153 512.952 132.999
503.337 -121.669 -153.578
248.218 480.107 98.6449
406.362 495.484 273.583
127.549 -320.601 631.816
434.04 402.281 23.7905
132.833 -495.437 264.449
681.475 21.2006 -67.5996
307.425 413.505 616.498
463.207 495.146 303.204
467.244 311.637 -65.6424
262.011 480.283 107.283
171.933 137.569 769.439
364.822 471.182 134.157
642.934 -131.971 -69.6688
-129.619 43.3624 624.507
266.397 480.352 110.09
370.613 288.662 -141.819
-1.84248 84.3945 683.03
260.542 479.953 104.923
606.31 -112.601 -96.4743
265.873 480.069 108.484
227.257 498.735 278.566
122.197 496.759 246.162
154.663 509.264 132.115
99.4098 487.841 296.819
418.411 486.617 225.284
119.995 496.787 244.378
-66.7505 -302.207 536.122
305.327 399.12 -55.2159
533.034 -222.785 -93.1464
97.4586 487.714 296.435
-34.1587 155.825 643.773
138.994 422.082 504.553
301.253 480.22 129.403
556.865 348.819 23.5778
389.631 -475.973 164.726
313.561 479.925 135.374
241.407 485.572 120.044
574.433 -305.765 -9.03203
364.776 487.968 449.665
253.519 488.302 384.89
351.583 -495.905 390.743
122.111 487.883 309.966
582.755 27.5497 -137.421
158 496.878 266.785
111.463 487.891 303.633
180.942 487.875 344.749
423.589 46.576 -214.691
375.939 495.399 255.653
170.153 487.934 338.022
550.555 203.949 -93.3344
170.833 496.955 273.673
280.612 -489.032 395.667
367.783 -267.326 -159.995
356.892 277.703 -157.801
172.393 487.974 339.103
469.807 299.772 -75.0654
213.39 485.845 105.415
463.409 158.191 -164.32
246.34 488.172 381.536
274.199 -437.726 -3.75092
256.657 488.261 386.87
235.325 485.807 117.68
235.66 488.163 375.268
258.959 -489.499 380.65
244.984 488.193 380.539
471.239 62.7374 -184.844
163.71 488.072 333.385
-0.274347 -342.003 535.902
231.824 488.265 372.428
90.8438 26.0156 744.136
169.659 171.148 755.167
364.003 389.144 -35.8737
-11.0951 -303.658 567.081
269.908 488.108 395.203
378.264 -499.449 325.257
370.887 91.8195 -242.395
197.612 -338.623 653.567
379.476 -282.951 -140.72
366.839 495.533 251.539
611.024 -264.989 -20.5887
218.538 242.227 746.524
517.2 471.937 224.495
523.476 71.1995 -153.452
-109.851 -24.5772 628.034
438.382 499.376 346.04
189.158 293.723 691.683
609.786 316.559 20.8007
-13.9236 136.986 662.194
641.35 -104.753 -78.4116
94.5938 -174.405 710.811
166.823 500.706 111.055
558.682 233.501 -72.1705
421.386 499.318 335.787
316.658 -498.79 332.643
453.298 -5.84424 -200.092
116.341 510.718 198.491
310.459 404.521 -44.4267
-80.1203 -237.885 576.536
116.188 513.421 198.756
432.747 484.588 224.035
384.256 485.492 472.16
463.942 -26.2791 -192.717
232.148 485.258 113.342
-34.9823 368.493 484.331
130.472 492.42 287.45
185.282 488.862 79.0819
113.788 211.367 703.984
325.212 512.529 325.402
274.797 -482.754 423.597
273.215 -466.478 66.0865
243.522 485.307 120.018
475.681 -164.949 -154.698
483.856 485.539 257.424
497.875 485.697 266.158
584.397 201.639 -74.8539
252.392 -490.87 368.744
412.281 -78.6299 -216.204
604.838 -56.8157 -108.697
342.933 490.664 423.513
327.724 506.287 324.662
398.191 -440.43 72.7332
381.679 489.765 450.945
171.054 -199.763 742.768
160.054 497.681 154.915
118.117 -435.25 467.235
370.029 495.202 404.724
85.9213 -222.094 681.908
376.647 495.229 408.111
257.908 451.331 511.663
397.555 -120.747 -215.184
94.5262 -182.959 707.107
330.75 453.182 549.019
166.97 503.093 110.8
482.616 486.976 264.777
259.773 418.851 -49.822
232.293 462.816 32.3634
61.7325 122.625 710.379
398.001 495.181 420.188
348.904 -293.691 -149.382
374.397 -120.204 -248.475
168.694 497.857 107.814
544.001 392.108 71.5972
331.357 494.415 222.687
314.033 -427.055 596.076
414.178 494.935 431.094
415.593 490.053 243.831
381.979 495.089 412.195
394.134 -244.403 -159.834
493.669 486.826 270.392
66.7782 -455.079 392.268
487.895 -484.677 258.383
472.406 487.016 258.995
691.56 -66.9881 -56.6564
100.738 495.616 249.312
589.065 312.197 4.828
133.695 212.332 714.872
399.656 494.921 423.272
347.116 495.379 390.714
62.764 306.625 607.426
287.054 410.966 609.406
175.61 497.956 165.726
111.934 495.701 255.021
309.996 495.583 368.713
491.062 486.836 268.92
69.6795 497.027 279.312
142.781 -60.4575 770.821
529.018 233.956 -89.065
142.978 -499.701 180.373
200.345 445.887 491.39
600.827 -102.929 -102.406
452.063 179.247 -161.919
138.791 503.568 159.608
297.838 461.507 65.7273
422.906 -387.323 -4.95251
139.524 512.811 158.337
376.257 495.546 405.25
232.096 -499.686 237.625
421.2 476.894 186.977
516.725 -293.762 -52.9376
103.447 495.823 247.999
152.454 513.923 135.942
220.386 -499.785 234.525
529.233 -327.108 -15.3339
180.717 499.905 229.116
206.749 499.907 234.608
-72.9417 113.466 635.355
453.492 12.0214 -199.563
437.161 -399.047 20.4793
169.604 480.199 372.573
-91.1633 -108.204 625.903
223.199 495.177 168.493
146.359 507.374 146.499
144.531 499.564 198.719
428.315 -488.301 240.275
412.186 489.785 240.196
238.461 489.807 137.95
320.909 489.529 184.758
167.755 498.975 241.928
400.14 356.706 -57.272
403.193 -258.28 -145.581
136.813 -497.478 249.388
291.842 489.595 167.996
342.55 498.923 342.161
350.407 339.411 -105.755
349.347 489.465 201.157
169.352 344.603 631.044
328.723 489.668 190.211
253.444 489.743 146.258
595.41 327.176 23.4508
278.814 489.724 161.086
211.372 188.988 771.582
345.148 509.236 295.027
14.2167 305.643 580.253
391.99 175.453 -198.053
130.159 515.463 174.558
-69.8717 83.3533 643.814
273.971 498.382 235.325
579.036 326.622 13.3688
346.612 515.671 300.244
199.673 497.771 177.325
155.053 495.38 131.44
461.295 487.863 257.556
118.942 499.288 207.536
-76.4232 74.8798 641.895
300.799 495.101 210.7
241.031 498.464 215.954
386.987 486.562 468.764
455.214 494.941 297.064
235.638 -447.394 -6.15611
570.35 220.531 -73.0636
358.314 499.113 348.41
568.731 239.509 -62.4137
169.644 497.557 264.222
-80.5542 213.147 590.728
417.74 255.691 -139.072
445.488 494.808 290.528
469.255 442.656 118.509
439.389 494.897 287.743
7.18192 -268.02 606.285
453.741 -125.238 -181.312
370.014 -294.111 -136.911
357.423 494.839 240.783
362.057 298.891 -137.858
271.622 488.595 393.799
507.214 364.393 13.5253
466.127 494.843 302.654
270.385 495.938 343.708
503.608 -41.1231 -168.692
448.39 494.987 293.554
450.7 286.037 -97.5614
107.091 487.987 300.472
297.448 486.907 158.005
447.718 476.454 200.849
454.136 92.6652 -189.474
465.716 490.31 274.977
382.488 -195.749 -194.128
172.268 494.662 297.981
169.04 -460.211 437.896
504.871 -237.71 -100.574
211.705 495.343 163.597
244.26 495.253 180.644
199.305 481.21 75.9959
67.988 -142.034 707.847
235.606 495.335 176.595
358.408 -498.56 282.378
450.316 -207.242 -149.445
445.005 476.261 198.53
18.5108 -351.583 535.735
609.62 266.158 -21.1304
430.373 231.017 -147.5
190.381 497.618 276.274
187.739 497.631 274.436
252.56 -475.173 83.7274
238.595 499.035 279.015
402.406 498.463 309.37
482.752 476.499 221.54
490.907 -94.0547 -167.591
487.731 102.701 -167.767
409.854 498.353 312.188
483.108 -135.211 -161.041
493.77 485.02 260.649
633.888 -90.5463 -86.1723
-85.2392 -308.73 547.639
260.421 -497.661 317.655
274.912 -436.286 -6.27664
256.504 495.401 188.574
547.793 -360.919 32.8663
616.331 -147.774 -80.0161
238.035 495.226 177.011
163.608 -498.884 180.237
487.403 476.76 225.25
468.748 476.356 212.796
507.839 471.421 217.067
409.477 -499.778 360.781
394.68 476.94 171.619
318.642 476.882 126.865
207.367 489.831 348.511
457.104 5.33148 -197.709
233.197 481.459 96.3726
406.275 -499.739 356.926
390.963 476.597 168.146
352.703 498.318 279.819
670.505 94.877 -63.5229
673.627 -98.8823 -61.3828
404.986 498.423 310.208
330.98 488.324 428.847
448.418 490.627 266.684
9.9024 -225.803 635.684
595.424 -207.438 -65.7542
238.567 481.44 99.3305
661.778 -30.9187 -78.3578
352.75 488.394 440.875
161.384 502.815 120.474
427.443 476.635 189.655
-77.437 -306.551 534.125
315.818 515.516 327.955
27.6215 364.596 525.727
360.995 498.591 289.448
303.715 -361.77 -126.05
427.7 496.534 297.01
102.841 488.616 294.158
502.646 141.785 -147.653
144.784 -490.638 309.39
130.008 488.79 309.139
263.098 481.593 113.954
456.479 104.768 -185.184
336.195 501.837 264.304
583.361 -232.287 -58.5045
130.55 499.944 175.113
81.9759 -507.657 258.014
240.533 -490.007 367.212
241.221 -447.518 -2.64307
226.338 488.676 366.702
336.777 -489.769 422.96
121.24 -484.754 324.05
322.512 488.533 423.078
401.889 -467.799 144.948
90.5823 514.315 243.107
231.881 498.097 202.781
138.087 -475.507 373.062
122.994 473.384 370.996
505.863 -219.498 -110.792
237.915 488.937 371.961
478.406 -229.688 -120.877
106.455 488.508 296.941
173.568 -397.933 564.778
267.785 488.73 390.846
253.45 488.884 381.453
535.15 -439.388 149.625
262.439 488.812 387.195
169.026 488.194 335.785
451.792 -364.313 -18.6634
559.529 363.13 42.293
609.457 -323.382 27.6731
-49.4045 -143.92 639.702
561.123 366.287 47.2894
178.866 506.377 90.4294
145.437 488.27 321.397
85.3534 488.874 282.272
11.9457 -291.68 591.023
1.98102 441.032 396.569
142.521 487.985 321.401
511.838 369.857 23.2558
107.24 506.174 214.255
78.7702 488.331 281.669
184.264 493.764 80.846
111.786 488.363 300.968
298.403 488.192 410.978
307.2 503.649 329.795
17.3461 -473.641 370.314
144.055 515.951 150.489
451.372 496.52 311.571
501.725 -480.491 246.986
493.337 77.6004 -169.719
294.552 -453.319 43.0456
310.591 505.987 329.134
481.118 -205.293 -132.711
171.943 488.461 335.889
381.944 274.707 -145.618
292.56 373.418 -99.3964
471.373 496.489 323.61
96.9964 488.321 292.489
540.238 277.999 -52.2584
51.0802 468.367 346.737
406.317 496.582 284.361
79.5935 442.679 429.042
444.034 496.519 306.981
448.071 -162.747 -171.429
402.591 496.668 283.276
352.858 -484.683 179.071
571.089 418.047 128.883
105.547 -490.449 288.215
91.4884 488.436 288.541
-64.9187 -153.514 627.173
180.455 -406.595 554.826
343.388 -303.477 -144.445
330.702 488.906 425.998
436.982 496.509 302.43
440.158 314.234 -78.7892
166.939 83.867 780.627
373.133 73.8235 -246.286
621.398 41.3045 -100.656
370.121 487.84 453.29
623.341 164.809 -69.4889
376.772 488.166 455.556
457.281 495.321 301.207
-102.137 -83.7725 625.203
412.349 496.641 288.977
376.225 -285.823 -140.208
364.557 488.269 448.149
41.1138 -3.9931 716.207
88.0201 494.77 249.152
92.2104 513.003 240.287
490.555 473.844 216.088
-111.752 218.447 593.56
226.653 498.09 290.429
188.362 -482.804 74.4756
559.68 68.1077 -133.129
259.235 -493.779 176.044
-10.2274 308.616 563.597
394.683 6.46539 -233.312
183.716 499.902 231.644
131.147 494.754 273.722
379.798 488.419 456.099
79.8253 506.73 261.738
319.082 488.504 421.265
79.9366 508.635 261.546
371.606 -337.315 -95.2638
178.383 494.82 300.216
160.836 494.724 291.009
7.33264 -238.004 627.198
446.55 484.56 231.737
193.084 -282.446 702.708
196.358 -434.502 513.544
220.919 -489.36 127.972
205.716 494.539 317.919
204.503 491.71 129.613
165.03 -476.165 386.045
436.757 -472.616 180.512
424.565 246.106 -141.741
679.487 -74.9096 -62.4295
209.627 498.081 281.403
554.567 -425.088 132.928
394.945 466.352 136.201
163.37 494.842 291.528
397.151 498.364 388.181
208.11 494.569 319.045
649.531 -204.543 -36.0276
131.207 516.694 172.743
196.638 -449.861 480.138
11.059 432.364 410.245
180.865 506.604 87.0883
202.469 494.572 315.818
607.622 -351.223 56.4027
123.732 515.993 185.69
329.456 -458.074 535.243
327.301 -425.451 1.62943
103.423 494.503 258.875
418.119 488.104 233.526
429.97 -252.609 -133.894
125.415 509.528 182.774
346.624 -459.891 540.185
166.961 490.127 322.869
220.784 494.512 326.683
431.162 497.865 318.422
97.3391 494.465 255.509
460.989 430.227 88.2571
412.696 497.871 306.982
186.191 495.836 153.769
405.544 401.515 5.98594
231.861 494.48 333.214
483.77 487.705 269.871
-3.48315 332.717 543.488
246.744 500.207 273.814
193.234 2.83746 803.725
-31.9576 194.262 628.306
478.426 438.926 116.215
240.214 490.641 143.845
339.761 503.741 276.252
275.913 -406.933 608.997
28.8689 5.64785 709.143
345.341 495.674 387.278
439.331 -281.926 -107.192
428.832 494.872 281.558
409.476 498.495 314.006
422.21 498.692 324.793
16.6709 236.874 633.037
406.696 262.462 -140.425
343.202 502.891 288.554
280.292 497.549 222.692
533.095 432.683 135.272
618.893 -341.655 51.8839
211.577 497.878 185.641
462.535 -347.343 -32.3527
442.479 499.238 345.653
281.28 -448.85 23.7368
366.608 -337.137 -98.3172
262.728 497.601 212.526
436.783 499.219 342.214
637.854 -133.907 -72.0575
274.087 497.64 220.543
364.043 333.34 -104.496
406.647 -471.324 158.842
396.003 499.1 317.959
592.061 296.956 -6.45298
328.298 -495.24 228.632
325.678 -297.715 -164.091
283.801 497.56 225.148
433.442 496.914 306.091
270.972 497.685 219.462
377.902 189.239 -200.308
-57.2742 50.8845 656.197
671.006 -123.229 -55.9033
343.27 494.399 229.324
365.098 488.02 201.712
385.89 488.028 214.038
232.231 494.209 165.333
393.352 398.35 -5.84148
426.254 -490.061 248.068
456.476 487.996 255.516
336.726 468.105 510.694
574.836 262.848 -43.5517
249.766 489.617 143.483
448.915 488.162 252.061
445.113 499.316 348.551
505.237 -380.47 33.0433
634.292 196.692 -48.3746
619.978 -334.882 44.8026
190.28 302.176 684.772
211.554 494.094 153.071
439.323 488.078 245.888
226.908 467.302 450.585
386.796 -124.993 -220.02
340.091 492.701 215.276
353.232 -260.063 -173.123
289.486 494.308 198.094
148.13 -498.182 161.943
194.041 499.925 235.236
487.567 -30.2705 -178.744
261.348 444.578 529.314
355.529 488.097 443.824
356.322 497.109 260.777
420.886 488.065 234.924
128.506 509.513 177.421
9.72042 -175.85 660.975
454.061 -371.715 -7.85058
-37.3678 395.15 464.723
655.612 146.462 -57.2866
364.631 489.598 210.988
259.168 488.297 388.234
186.263 500.4 77.3835
201.638 488.367 353.991
340.124 462.307 530.8
444.782 379.93 -2.67989
-53.2171 244.337 587.612
215.275 488.193 363.093
179.717 505.22 88.7218
270.905 486.659 402.467
199.08 499.435 213.499
-44.3276 -367.3 481.062
178.326 499.319 201.506
69.8027 493.653 279.098
96.216 509.716 233.349
96.0478 335.978 597.897
295.114 368.167 -104.333
503.712 474.09 224.723
511.698 -48.3532 -163.482
-41.0539 -105.695 655.681
307.779 509.246 330.041
184.027 499.321 203.649
272.579 497.527 217.325
25.2843 454.566 368.828
320.78 498.484 337.057
148.073 38.693 776.406
456.06 492.249 281.009
461.086 433.212 94.4227
256.763 499.612 248.991
388.566 -497.725 287.209
-34.5135 -87.6744 663.774
312.539 505.784 328.629
315.096 398.752 -50.1414
220.182 -499.255 216.409
181.138 499.842 222.734
205.024 499.48 217.39
178.298 -82.0305 787.368
571.7 -57.5842 -127.849
8.16421 -410.379 449.391
388.339 497.341 284.122
235.683 499.54 234.104
453.944 304.298 -80.0827
126.907 -486.787 317.899
425.194 497.637 311.399
-62.7022 -43.1655 654.317
95.215 510.716 235.083
406.283 498.509 391.11
98.4321 478.04 339.036
117.497 242.855 687.623
433.065 327.858 -70.1063
357.598 -271.361 -162.885
346.114 490.495 426.41
364.583 498.347 367.76
141.302 192.279 729.785
412.696 498.485 395.688
349.641 -432.142 28.0523
123.695 -12.7007 763.815
334.887 493.378 216.6
95.3228 506.877 234.896
352.351 -255.755 -176.438
443.157 492.157 272.838
261.257 -460.631 489.445
247.816 498.186 300.026
220.196 498.339 282.238
348.939 498.334 358.039
161.232 494.025 122.912
159.913 490.096 318.893
347.094 248.471 -201.185
384.81 -9.34393 -239.443
296.595 493.402 195.058
424.6 498.529 402.392
19.3267 -387.622 490.196
544.398 -386.378 64.306
214.512 498.342 279.108
440.151 492.559 273.495
523.173 461.908 198.251
351.405 492.419 220.251
583.62 214.413 -68.9226
532.123 -87.1993 -145.414
354.728 498.273 362.941
428.156 492.212 264.309
338.135 492.71 214.178
580.404 392.819 93.6747
526.503 299.619 -42.2887
352.962 492.574 222.106
167.486 493.809 126.599
559.93 240.695 -66.7439
165.608 -479.615 373.448
421.553 498.559 399.858
21.4013 -137.542 682.66
406.607 264.313 -139.112
357.761 498.332 363.709
595.331 349.695 46.7658
334.635 498.229 351.016
338.374 490.24 423.382
109.831 453.731 420.413
160.694 497.358 152.56
463.975 30.2305 -192.487
461.125 492.395 284.881
657.808 12.1128 -81.8395
280.208 445.116 538.85
310.885 498.192 336.602
183.218 422.973 528.28
357.818 490.765 431.687
453.991 492.605 281.941
464.148 439.818 109.726
337.128 490.629 420.297
288.087 -380.54 -98.9821
463.561 492.66 287.923
333.325 490.228 420.474
242.334 498.194 296.928
362.631 498.326 366.926
133.25 245.773 694.855
400.681 338.154 -78.2279
674.872 -80.0593 -64.3019
673.041 79.5405 -65.4543
216.946 499.583 225.702
388.579 492.397 242.062
178.669 -195.542 749.239
221.137 498.188 285.589
81.8923 401.893 505.325
340.984 405.695 -24.8279
157.292 -91.1951 773.264
166.331 456.121 446.951
487.541 483.816 251.959
455.268 274.01 -104.01
357.594 -476.439 148.242
333.598 519.008 323.219
-73.6175 -198.2 602.933
414.65 296.57 -109.735
236.597 499.746 239.118
-35.1998 131.508 651.8
414.33 483.698 209.472
-33.9865 404.24 458.866
366.98 489.491 443.874
591.333 -59.5479 -116.121
169.333 494.65 296.408
82.8819 489.006 280.013
243.846 -415.505 576.862
378.173 430.244 40.0775
396.87 -442.113 75.4259
381.942 489.223 453.601
347.329 357.268 -86.9323
429.345 22.2741 -213.029
487.199 110.806 -165.793
586.322 344.922 36.5833
-98.9215 -73.8738 628.627
642.453 176.853 -53.5019
214.58 499.592 225.176
485.001 483.728 250.14
432.711 494.953 284.389
493.675 483.827 255.595
106.278 196.759 707.243
372.459 499.715 316.886
403.951 483.678 203.492
658.496 35.4656 -79.6484
388.723 483.615 194.563
328.563 -499.703 303.148
40.5254 368.299 528.451
621.38 -36.0986 -101.187
260.692 459.488 492.955
247.27 499.619 243.064
404.382 488.473 227.646
174.415 110.062 778.756
118.534 -69.5913 755.386
643.898 305.399 30.644
386.758 488.437 217.022
470.087 490.419 278.215
408.609 488.327 229.262
10.9083 -102.792 686.546
6.99288 86.203 687.752
342.344 488.916 432.557
520.32 -395.482 63.4121
467.251 492.683 290.246
82.5167 101.296 728.196
480.57 452.106 147.007
510.376 184.821 -126.041
466.397 483.846 239.744
99.0725 -482.136 323.235
571.881 278.543 -33.4559
464.089 488.03 260.216
456.522 238.678 -128.056
461.692 483.698 236.374
110.147 410.785 507.436
679.473 -159.89 -38.6553
290.192 427.405 581.565
70.063 -21.9648 732.429
373.806 499.698 342.296
436.578 138.934 -186.823
336.018 488.873 429.167
631.025 116.133 -81.5888
409.665 499.487 363.441
514.805 -263.637 -77.4196
208.028 -456.109 471.147
192.89 482.974 80.511
264.98 -455.159 31.0805
440.032 -77.437 -200.515
49.4865 -383.662 513.425
625.187 -5.87858 -100.715
411.91 499.451 365.667
436.425 -490.335 255.444
334.749 493.443 399.68
357.81 237.309 -185.598
219.755 -399.958 588.001
346.459 506.518 300.035
369.926 499.679 341.648
376.458 140.441 -220.95
422.369 488.296 237.197
433.672 -252.181 -132.046
43.043 -327.67 576.144
399.484 -284.209 -128.187
94.9902 327.115 606.477
387.099 488.556 459.607
621.373 14.6813 -102.613
145.275 -168.913 742.537
478.571 488.171 269.624
490.334 488.233 276.942
539.418 330.188 -5.93568
97.8296 507.189 230.554
121.795 421.619 495.536
336.439 503.372 264.719
124.504 497.406 238.234
526.635 470.715 225.41
505.617 476.429 234.668
409.109 353.406 -55.9295
69.9714 -343.881 574.53
445.183 -44.5505 -201.999
382.722 488.073 459.36
450.996 499.306 351.717
348.563 503.299 308.027
466.094 -155.788 -163.534
142.125 498.706 164.707
373.815 218.831 -186.97
136.885 -473.609 378.352
121.411 514.93 189.711
307.743 -449.34 546.109
95.0229 494.376 254.68
527.175 456.635 186.392
353.187 -499.682 330.692
337.195 480.001 149.501
291.299 498.422 242.411
-47.6361 194.179 619.253
373.114 499.956 330.048
309.543 -456.168 528.973
66.0895 436.919 432.968
442.998 -252.441 -126.519
130.527 -481.349 345.388
434.623 499.355 343.626
414.798 -74.6761 -215.632
379.573 -467.198 130.008
365.314 499.973 324.496
436.879 479.843 207.291
343.973 506.34 290.748
87.5212 506.625 248.409
670.262 155.342 -45.6392
446.316 289.085 -97.5745
336.808 -285.647 -162.994
510.695 476.359 237.378
519.813 -87.2606 -152.477
515.892 92.0023 -153.812
133.906 515.87 168.068
295.791 480.545 127.657
137.579 -287.731 666.451
128.43 405.025 527.345
402.933 492.274 249.796
507.84 -339.155 -15.1532
237.474 480.433 94.0582
82.2155 -330.028 596.212
-38.3315 227.706 607.119
285.209 495.438 204.569
500.225 -130.022 -152.982
101.567 -386.349 539.831
217.126 482.59 390.77
421.947 480.302 200.279
214.317 -324.589 677.674
355.435 499.987 318.298
-2.77833 -3.39108 690.778
544.753 407.154 96.0235
442.593 495.608 295.105
235.609 495.085 174.504
340.915 509.77 279.178
394.395 492.536 246.34
670.746 101.369 -61.943
671.995 -92.9196 -63.741
381.086 492.76 239.838
325.281 496.351 234.339
259.508 -428.813 561.285
-88.3846 -87.2216 632.634
463.201 -104.101 -181.294
478.079 -214.486 -129.783
106.599 495.615 252.92
26.9922 234.447 640.611
362.205 488.975 443.551
295.097 418.199 -29.273
112.921 514.977 204.414
541.81 344.378 10.1734
347.718 502.03 316.219
173.545 310.005 667.905
108.419 518.256 212.389
523.499 -129.964 -139.503
361.219 315.257 -123.169
134.256 232.181 703.84
496.123 486.848 271.978
507.252 -244.146 -95.0104
154.482 499.198 188.186
280.99 -453.724 519.206
261.008 498.117 323.19
151.314 504.421 137.917
341.68 518.253 281.704
-31.2431 -260.836 589.297
451.753 495.57 300.006
15.7545 -175.498 664.624
-43.8512 -359.85 489.954
184.662 116.902 782.684
-133.305 -15.4877 630.891
213.948 479.217 75.0896
127.368 -465.091 399.646
430.928 110.313 -198.281
113.074 508.254 204.15
143.011 509.223 152.297
190.348 489.683 339.362
-101.152 -75.3893 627.095
138.969 505.695 159.299
210.713 463.697 452.459
32.1779 196.629 664.328
315.672 500.021 327.377
448.477 475.627 198.171
322.487 495.453 225.747
323.143 490.386 413.506
326.297 293.221 -165.011
445.527 477.212 202.426
451.085 101.651 -189.179
454.136 -100.062 -187.4
156.267 491.361 309.088
200.956 479.306 68.1282
483.809 359.854 -5.625
160.16 501.33 122.595
148.618 -119.844 761.599
274.083 479.672 111.42
463.68 86.5257 -185.276
578.159 218.912 -69.5024
539.62 240.519 -78.6426
196.366 494.397 59.8839
255.466 496.131 333.73
290.58 497.027 345.878
407.259 484.033 207.012
286.153 -469.209 479.465
286.375 -474.873 101.846
154.206 496.521 142.013
134.214 495.036 273.474
102.66 512.664 222.188
-58.9256 -328.72 516.022
334.226 498.535 258.353
417.982 484.128 213.532
-100.984 168.369 600.567
265.435 -447.631 525.442
250.918 499.101 288.341
353.864 -488.069 195.461
339.865 489.377 195.031
187.963 499.053 194.724
448.291 490.293 264.587
348.803 -489.561 201.354
218.296 488.844 360.937
337.415 489.692 426.019
216.93 483.277 387.482
334.111 459.07 536.922
420.09 480.31 199.222
238.195 -477.209 423.767
170.194 491.524 316.32
234.716 481.645 405.115
389.416 381.087 -32.8554
456.024 484.167 235.294
67.4403 110.927 717.016
282.551 498.316 239.476
208.405 488.619 356.464
109.993 -274.976 660.8
97.0834 503.514 231.847
211.078 488.718 357.439
166.643 488.345 333.465
72.2619 17.024 733.734
114.783 512.627 201.19
498.14 370.929 16.6786
391.514 492.953 247.161
397.705 480.023 185.026
657.948 147.051 -55.7228
458.303 26.7358 -196.02
427.319 -359.551 -38.689
145.519 488.941 317.384
202.676 489.258 349.215
456.091 -421.768 69.6169
339.601 512.193 274.172
170.057 488.516 334.443
547.538 402.279 89.792
108.993 239.609 684.811
274.507 489.752 158.708
175.882 488.754 336.442
385.54 -499.397 327.798
385.59 107.209 -225.233
290.735 390.713 -103.567
-10.252 -177.451 648.712
63.1316 -496.427 290.653
477.957 299.747 -70.3568
189.445 489.251 341.444
507.468 -395.342 55.7394
399.855 480.474 187.988
131.601 -218.817 710.284
427.986 342.745 -57.3878
234.363 -490.613 360.104
220.587 489.302 359.52
97.5867 489.055 288.396
274.156 489.044 392.709
308.478 -475.628 469.687
224.149 469.093 11.763
338.512 500.488 272.81
340.276 344.305 -105.926
97.7857 497.144 230.814
181.079 469.465 417.671
361.989 426.955 24.8313
207.758 489.013 353.692
337.63 -492.639 213.469
-97.125 118.105 620.304
160.275 488.806 326.914
337.318 260.483 -182.332
112.85 488.915 298.253
146.415 -490.093 313.57
525.934 423.659 112.799
130.747 488.502 311.32
372.27 480.194 170.774
106.349 488.998 293.914
632.634 -283.897 5.92363
181.648 488.796 339.592
162.788 -490.372 321.143
148.346 488.533 321.524
156.736 488.906 324.217
192.077 488.873 345.281
105.095 -490.742 286.365
91.993 489.014 285.344
190.838 488.779 345.121
210.925 499.02 264.371
593.224 162.622 -87.73
319.08 500.18 326.687
94.0639 -309.943 622.283
224.637 489.151 362.824
386.129 8.89032 -238.12
341.094 518.593 278.667
390.76 480.067 181.124
414.379 496.593 417.34
301.433 356.743 -113.878
159.976 -263.259 698.462
327.661 489.037 423.666
232.123 489.322 366.213
175.227 -372.719 600.687
613.337 197.836 -59.9599
130.85 -264.516 680.632
346.092 -303.015 -143.275
119.399 488.71 303.359
167.015 488.879 330.451
178.379 -153.557 767.219
363.716 480.154 165.612
208.588 495.111 315.087
304.498 -481.126 135.591
173.527 493.883 130.519
171.988 490.489 323.644
388.655 494.415 255.199
389.325 491.729 444.017
397.477 494.556 261.306
363.942 494.323 240.458
367.619 305.919 -128.149
337.68 501.281 269.668
130.674 512.949 173.666
225.926 -304.778 703.072
178.213 495.664 147.969
80.0087 494.244 261.421
438.413 -73.3171 -202.357
364.704 -499.773 330.498
350.202 499.8 329.452
382.882 -498.955 366.598
327.271 314.302 -166.849
-11.4038 440.538 419.752
257.407 489.885 149.421
89.7057 -161.326 713.498
451.159 113.323 -185.788
90.9788 254.739 664.47
254.619 482.168 111.803
148.266 26.667 777.128
303.063 495.868 362.536
301.285 490.154 402.006
233.043 -431.837 539.974
380.052 -276.401 -145.816
367.846 490.209 440.917
307.302 488.583 414.216
181.327 -391.257 579.13
220.094 496.441 311.084
-66.7982 -129.951 633.779
-76.3273 158.13 618.501
305.91 489.909 406.219
308.129 496.172 223.236
115.253 -400.225 527.676
106.476 173.595 717.816
314.717 490.167 409.858
472.788 468.958 188.76
351.521 490.098 432.006
339.934 -469.359 113.654
324.841 509.89 325.474
364.081 495.807 396.405
267.086 -482.666 419.475
74.2296 494.451 271.43
237.656 -498.92 286.939
223.654 457.027 477.965
293.54 490.203 397.141
291.278 495.32 207.001
389.07 165.106 -204.116
233.595 489.758 364.441
176.185 -372.163 601.951
367.223 460.552 103.596
619.921 -196.327 -57.3905
-73.8222 -45.205 647.68
307.311 496.319 361.087
-85.7544 158.11 613.041
114.772 509.349 201.209
-22.0267 405.255 439.476
408.523 477.172 180.603
415.418 89.8188 -212.509
388.505 488.383 461.206
66.9882 -198.549 683.565
436.392 476.791 195.488
257.912 -490.608 373.423
547.816 281.48 -44.9836
244.335 489.607 371.695
58.5547 -79.4763 719.052
507.018 427.202 108.868
511.162 243.153 -93.4314
633.485 -80.6508 -88.2257
196.554 490.267 339.493
265.624 490.084 381.379
184.415 -302.971 680.727
290.053 478.596 116.588
364.46 490.262 438.633
363.261 494.702 243.031
297.999 496.181 357.146
418.511 251.803 -141.463
127.557 -454.498 429.052
113.36 496.79 240.19
511.534 264.274 -78.8648
445.373 477.554 203.628
455.761 -100.643 -186.336
442.833 484.701 230.281
375.004 -99.6107 -249.526
373.894 80.0948 -247.603
163.443 489.909 322.111
238.227 490.305 363.865
425.044 109.782 -201.815
-59.9923 249.95 580.013
155.12 489.805 317.823
330.454 506.074 323.927
174.318 489.579 330.526
30.9765 387.603 497.837
250.325 460.711 36.0517
386.03 -499.532 334.147
288.516 389.682 -99.7244
487.747 -84.8453 -171.445
644.301 3.55566 -89.8061
344.145 517.603 290.89
259.616 425.161 568.097
550.456 238.582 -73.6215
337.598 517.131 266.488
332.182 -291.817 -175.357
357.53 180.57 -219.26
337.677 504.911 268.615
390.624 487.996 464.196
538.403 55.8692 -147.411
214.265 490.128 350.787
536.652 60.9831 -147.602
407.141 80.6717 -218.764
212.225 489.751 351.867
308.636 490.074 406.832
583.003 -86.7024 -116.275
231.859 -491.576 352.93
346.744 -281.281 -160.903
217.047 489.794 354.45
449.347 477.765 206.751
535.213 -438.371 147.289
523.671 304.535 -39.8242
261.051 489.93 379.611
438.645 -437.717 90.3595
296.678 496.244 355.902
200.108 489.719 344.906
340.131 496.044 381.332
171.503 489.617 328.636
293.193 374.618 -107.825
604.156 -7.76025 -134.726
297.877 -491.501 390.64
282.954 490.274 390.461
631.803 83.1188 -88.5722
493.856 249.517 -99.3116
494.203 -440.672 128.756
193.487 489.946 339.622
-103.42 -251.561 579.936
459.672 486.361 247.508
175.675 489.355 332.681
250.527 461.408 38.3516
165.399 489.258 327.206
544.895 389.278 68.0516
558.665 165.093 -106.647
436.803 486.157 233.59
168.7 -490.87 321.505
-19.518 106.573 667.861
154.688 489.258 320.883
79.0702 487.805 285.028
301.78 -376.234 -122.515
370.934 471.602 138.959
105.186 155.503 724.695
622.445 238.957 -31.6109
145.454 510.391 148.065
83.5917 -506.824 255.215
241.635 -490.775 363.239
226.784 489.237 363.574
76.1985 487.995 282.181
457.955 -496.952 320.484
352.792 -216.31 -200.993
150.826 490.806 309.234
319.574 477.387 129.315
207.269 489.305 351.637
410.096 -499.805 363.148
393.905 476.246 168.544
138.862 508.304 159.484
509.579 -343.278 -9.73022
597.97 23.3033 -115.473
221.461 -395.868 595.542
220.198 -487.537 116.652
361.186 -466.438 116.867
32.1507 -148.855 684.832
347.798 509.328 304.93
516.432 -356.267 9.27105
311.66 448.861 548.138
279.522 496.58 211.014
543.129 149.272 -121.519
673.709 -157.97 -42.8134
228.026 489.383 363.42
173.598 -401.785 558.614
268.487 496.333 202.914
349.672 297.184 -146.551
73.5824 -470.046 352.587
274.156 493.206 180.804
272.994 492.74 369.658
276.627 493.323 183.115
346.964 513.097 301.661
412.45 496.337 284.643
457.744 495.597 303.616
450.385 486.337 242.125
148.934 508.474 142.038
391.339 197.459 -188.909
396.856 -192.284 -187.59
315.628 495.994 226.074
319.201 315.396 -152.872
168.276 -71.6952 783.894
567.461 70.6849 -128.209
90.567 511.792 243.133
172.484 -405.544 551.944
157.279 496.923 147.06
269.544 493.605 181.296
268.996 492.429 369.176
319.732 495.983 228.322
323.311 309.023 -150.715
646.435 65.8808 -83.5468
255.969 422.622 570.585
348.152 514.799 306.038
394.177 255.045 -153.084
538.173 423.192 118.969
272.361 491.301 377.989
312.856 -421.092 -14.9544
448.277 494.643 290.967
414.662 488.072 231.289
384.682 385.825 -28.775
108.896 -63.7169 750.723
385.413 -267.432 -149.696
305.311 -412.834 616.379
376.264 488.018 208.294
163.463 -262.32 701.119
166.61 506.72 111.423
332.053 480.381 147.927
571.931 -251.962 -52.7533
466.206 243.065 -119.57
274.339 492.422 372.377
42.6305 -458.164 370.994
368.828 130.281 -238.828
242.047 426.482 555.651
19.3717 353.624 534.569
393.56 496.542 275.822
655.946 25.5244 -81.9801
21.5729 399.163 474.642
346.069 512.955 298.324
550.757 163.873 -111.709
488.488 -444.673 134.761
639.156 -237.635 -23.0724
268.466 498.932 242.826
274.364 497.13 212.816
223.877 -499.629 246.232
514.153 352.7 3.54059
136.25 499.086 177.262
557.039 142.648 -115.804
432.561 499.025 389.59
114.858 515.746 201.059
375.782 499.955 330.299
408.301 499.316 369.577
154.624 516.147 132.339
391.644 473.201 155.78
475.319 -484.936 252.198
301.981 507.149 331.386
31.9263 -442.287 401.81
406.998 -217.607 -169.188
526.581 359.036 17.9781
231.962 494.654 168.905
244.616 -481.751 103.856
229.217 498.737 279.591
268.057 433.511 557.554
629.214 119.938 -81.5382
402.141 495.03 423.714
148.026 491.403 303.968
333.035 491.71 411.338
241.239 -286.221 727.238
229.105 492.468 345.387
418.154 487.603 230.516
234.692 -458.36 22.3481
152.229 373.148 587.102
575.579 42.5844 -127.012
252.989 -434.461 -22.545
126.06 498.389 224.996
268.143 497.157 209.681
344.74 514.999 293.272
81.1993 -27.3122 738.535
551.236 418.594 118.232
171.141 474.639 394.459
288.041 493.078 187.685
112.671 489.474 294.766
69.0271 130.537 712.303
253.28 491.606 364.878
-14.0832 -364.531 501.83
495.936 -2.6911 -176.682
251.586 -480.211 420.14
233.963 499.457 231.338
345.724 506.492 297.287
19.3189 -125.479 685.002
205.516 489.315 350.542
101.514 176.691 713.652
116.716 488.551 302.74
-47.7387 380.533 482.686
102.275 515.651 222.854
586.341 136.808 -100.884
272.022 494.857 192.519
276.559 407.682 609.187
463.601 497.517 333.628
342.272 503.272 285.185
97.8576 32.7047 747.854
38.0816 74.4324 708.031
430.657 483.581 218.194
41.4979 323.487 579.181
313.304 496.409 228.073
76.3523 457.683 390.239
194.14 488.653 347.833
214.869 492.025 137.948
429.559 -387.015 -1.52797
334.594 513.929 322.899
344.545 500.253 294.012
280.052 -478.85 441.437
201.703 488.758 351.662
445.755 381.344 -0.176943
401.551 492.866 252.563
592.92 -161.897 -88.0003
27.6135 384.746 499.747
316.817 512.678 327.657
653.392 144.375 -59.3146
387.871 -224.755 -176.206
283.82 -477.587 448.317
487.758 -450.497 147.929
157.971 499.88 126.386
135.623 491.389 296.725
-123.766 113.374 614.369
247.39 491.686 360.917
-64.1199 272.824 562.046
337.081 500.889 267.681
285.565 -462.936 497.158
198.79 496.257 300.438
394.254 490.834 452.779
139.987 439.494 470.73
450.385 204.435 -151.193
281.243 497.617 224.652
425.543 498.966 331.365
547.163 -365.06 37.2891
130.836 518.54 173.403
247.648 494.21 173.77
285.366 480.283 120.528
316.105 498.538 333.007
421.894 -36.6683 -216.098
433.203 499.846 358.107
341.274 503.09 281.74
-113.813 200.713 597.13
396.73 489.515 229.438
192.896 491.494 329.907
224.289 489.788 358.767
82.7727 490.625 270.151
-97.818 35.4963 634.138
325.267 496.079 232.21
259.248 -430.147 558.415
259.787 -437.853 -11.7402
462.745 -106.437 -181.039
159.032 -442.797 474.704
144.775 494.161 285.356
97.7994 -498.203 230.606
582.405 -373.222 67.7162
223.904 491.528 348.007
160.702 -442.426 476.543
145.716 494.722 282.391
377.189 -314.263 -115.631
681.618 -152.92 -40.3716
171.878 383.22 584.923
224.049 492.202 344.017
74.2531 492.458 271.39
481.553 -421.454 83.8638
105.587 489.696 289.244
346.363 503.651 299.79
10.6313 -66.302 693.34
341.002 510.577 321.143
255.206 498.441 303.02
163.036 -189.045 743.478
157.907 179.567 744.845
507.539 457.658 177.686
249.171 496.321 192.26
112.553 -446.747 438.394
433.926 498.285 326.229
434.315 444.44 102.381
268.85 491.321 375.793
267.863 494.321 185.929
-101.509 242.239 575.818
108.871 493.744 266.679
227.147 489.57 361.769
399.581 498.347 390.085
259.908 443.321 531.41
245.858 500.331 271.346
202.816 -155.29 780.651
192.595 387 591.382
444.79 487.923 248.179
472.117 323.722 -51.6276
329.575 495.323 381.587
554.28 262.181 -55.8525
-54.167 -305.432 540.429
427.902 337.899 -62.6875
337.556 503.124 321.989
22.2083 125.693 686.779
583.535 -199.755 -76.5998
152.584 202.927 731.033
297.246 499.594 331.961
436.811 345.456 -49.1982
115.497 341.401 603.563
296.308 488.88 406.572
126.043 483.676 333.926
505.432 -15.8244 -170.251
156.104 497.458 129.62
334.686 500.058 259.529
341.287 -499.49 331.218
109.854 491.355 281.717
342.574 506.238 285.546
549.877 227.055 -81.0963
391.975 53.1129 -231.783
37.7571 335.3 564.754
279.64 490.001 390.154
528.959 -249.811 -78.8446
377.414 -87.6667 -234.248
88.7909 508.975 246.21
115.395 499.018 209.24
257.541 448.312 10.2855
348.085 268.563 -169.597
-4.46086 121.145 672.753
243.924 500.294 259.094
226.35 -331.434 677.5
214.427 493.026 333.347
-56.036 231.134 594.607
181.486 498.994 190.112
349.514 489.235 435.148
385.878 -384.955 -29.8403
172.538 489.503 329.938
251.532 -429.17 555.99
409.513 -463.952 137.282
234.716 492.673 154.268
483.657 488.32 273.525
446.251 327.046 -63.2918
257.989 498.839 312.819
23.0258 398.419 476.686
28.3687 61.4731 704.484
345.087 512.446 294.671
142.467 489.493 312.242
115.693 -281.417 659.111
312.3 510.961 328.851
-85.8451 278.169 548.688
316.277 506.361 327.69
335.765 511.989 322.564
116.958 515.64 197.423
333.022 506.929 323.247
-73.5166 -210.004 596.353
415.333 307.966 -98.8539
355.956 -470.717 127.301
340.621 503.142 321.167
195.867 484.102 87.4143
540.7 -398.21 79.1825
124.384 492.157 285.443
660.25 -237.252 -11.0561
300.842 516.162 331.982
310.486 500.71 328.733
536.481 441.514 155.319
300.962 503.403 331.338
168.658 497.046 270.995
229.439 492.944 342.703
89.6993 488.818 285.171
347.077 503.382 302.471
420.762 68.3958 -212.885
247.66 490.783 366.541
296.617 485.487 150.972
297.81 482.531 137.98
37.8303 -178.033 676.35
593.944 -311.438 7.56682
317.76 504.621 327.227
37.1878 349.362 549.708
100.848 488.853 291.543
670.758 -64.0636 -69.2161
344.127 512.602 291.078
538.923 -187.158 -108.488
239.006 498.972 224.842
-70.525 258.608 568.243
221.003 495.955 173.794
220.763 -398.773 590.482
347.418 506.842 303.605
287.138 498.279 334.507
249.82 494.896 180.694
251.24 490.684 369.252
573.222 -68.3351 -125.205
81.5108 -501.059 258.819
227.741 498.235 202.897
342.13 500.177 285.573
-92.6063 279.348 560.399
347.074 496.025 385.285
427.636 486.837 231.562
293.136 500.846 333.092
-64.7288 -302.572 536.957
474.834 -359.655 -10.9708
60.764 287.899 622.004
273.586 499.033 246.345
516.667 166.049 -130.38
338.002 483.91 167.157
523.576 -166.891 -126.096
625.411 -147.483 -74.8999
367.408 498.172 284.996
61.4147 -479.287 314.399
214.409 -499.68 237.601
420.522 -421.149 47.7989
199.919 469.782 427.421
504.215 -19.0537 -169.874
11.3146 -86.66 690.35
141.301 502.183 155.26
185.441 489.289 338.849
46.4261 -364.435 537.085
436.798 344.414 -50.4072
99.1934 -494.016 256.555
84.1907 506.849 254.177
148.266 -292.304 668.801
300.887 498.415 331.066
443.406 479.753 210.774
490.445 105.472 -165.457
289.77 488.258 159.897
486.942 11.3079 -180.439
-51.8491 -213.3 607.032
468.395 484.932 245.848
323.109 496.023 230.548
39.9167 -169.365 681.242
263.971 -448.413 522.763
249.915 499.189 285.421
199.409 498.859 197.304
359.12 499.972 324.423
7.80073 -17.5333 696.469
77.6294 499.632 265.542
388.488 -499.268 324.086
379.804 50.7964 -239.123
123.963 491.221 290.859
419.148 -432.07 67.6916
232.434 491.297 354.442
276.544 495.433 199.796
286.296 -447.724 537.383
-17.1129 -66.6666 677.196
153.436 506.599 134.241
344.403 502.039 293.003
422.279 490.159 248.419
457.717 464.47 166.948
270.373 499.139 247.028
109.133 -127.264 736.569
619.159 345.169 55.9061
284.368 415.649 599.425
312.594 489.706 180.922
-88.4057 -258.797 557.635
220.556 -486.139 108.491
355.476 480.208 160.99
580.162 -396.009 98.9535
331.486 446.477 48.3093
421.781 85.1956 -209.634
178.656 487.907 90.9799
400.624 -437.815 68.7949
225.833 499.853 239.339
3.6749 458.326 393.635
658.481 -153.577 -53.5112
142.505 497.852 243.025
446.184 392.456 16.0028
262.417 -499.389 282.741
259.404 491.658 161.332
232.519 -377.465 627.457
178.463 494.838 141.198
256.211 498.414 306.469
-23.6345 -351.579 511.261
366.26 495.878 253.9
357.031 492.69 418.2
591.006 -64.12 -115.59
258.794 -455.733 501.152
348.37 511.548 306.981
454.149 499.742 361.477
79.9556 511.939 261.754
337.4 518.051 322.189
296.979 502.851 332.291
568.327 -66.2407 -128.395
318.1 -458.886 71.3998
305.04 509.401 330.759
180.901 -129.633 777.141
378.016 492.65 237.361
201.896 -323.711 671.452
482.894 355.595 -11.0612
189.537 499.381 207.95
369.745 421.679 19.7618
421.57 499.308 374.677
429.261 -71.8049 -207.942
122.917 -494.505 266.507
491.016 148.048 -152.175
92.2296 506.19 240.254
568.912 212.213 -78.5773
-108.726 -184.127 588.766
243.401 -453.936 -21.5831
229.009 494.824 168.717
552.214 -209.736 -89.5022
-6.58946 335.131 539.18
347.984 502.513 305.892
466.812 -156.453 -162.885
289.157 497.701 231.382
283.422 -406.228 614.433
500.11 62.4841 -168.338
478.557 -462.807 174.018
308.542 495.327 370.061
-43.406 -350.787 500.692
210.964 495.003 160.347
345.738 510.48 297.182
238.134 -323.631 692.338
389.229 306.664 -115.05
265.374 418.055 584.206
345.178 516.797 294.838
422.975 -197.113 -170.184
416.884 206.402 -169.331
462.764 495.642 306.825
181.095 -487.335 93.3718
675.941 -12.6473 -70.8734
456.475 476.273 205.297
22.6856 453.078 371.317
-129.742 32.4293 624.719
345.923 496.358 246.107
382.041 -490.748 442.65
325.017 502.43 325.23
273.128 494.356 189.188
274.653 490.543 383.932
367.829 131.246 -228.548
315.259 485.88 163.36
343.875 503.784 290.699
359.332 -262.183 -168.236
395.107 495.904 412.565
340.921 500.482 281.252
571.587 -113.616 -116.317
365.646 487.573 451.985
