ply
format ascii 1.0
comment Created by Open3D
element vertex 1904
property double x
property double y
property double z
end_header
-66.7556 -1015.03 708.964
-518.807 -475.677 708.962
380.671 -823.352 708.962
-426.976 -759.263 708.962
413.612 -813.945 708.959
-379.189 -825.003 708.959
-518.708 -525.136 708.958
436.243 -782.028 708.957
142.955 -21.605 708.957
131.057 -1002.61 708.956
-515.224 -431.889 708.956
-165.507 -971.47 708.954
405.822 -824.144 708.954
-76.1075 -993.788 708.951
-454.496 -248.785 708.951
-121.221 -1005 708.949
206.25 -976.686 708.948
-498.705 -470.894 708.946
496.117 -440.818 708.945
367.618 -866.974 708.945
359.651 -153.218 708.943
382.142 -821.521 708.942
199.291 -42.2101 708.941
518.984 -524.392 708.941
-372.58 -137.697 708.94
498.876 -521.771 708.94
-468.812 -275.461 708.939
384.597 -818.468 708.939
-180.648 -13.0337 708.935
-216.326 -27.9173 708.935
383.869 -849.833 708.93
-515.083 -566.57 708.93
-498.173 -534.026 708.929
425.309 -761.666 708.929
415.523 -776.977 708.929
96.1555 -1010.33 708.928
378.862 -825.602 708.925
-140.329 -1000.06 708.925
-513.328 -421.044 708.925
-496.537 -554.124 708.922
498.477 -469.811 708.922
-519.704 -489.141 708.92
388.522 -155.476 708.918
-513.641 -576.347 708.917
449.8 -240.542 708.915
154.235 -4.16596 708.915
163.545 -993.287 708.913
-463.25 -734.597 708.911
-338.584 -105.465 708.91
519.473 -487.714 708.909
-381.564 -147.167 708.909
-384.532 -819.047 708.908
-420.395 -194.832 708.906
377.415 -143.118 708.904
-145.455 -0.869415 708.903
-112.715 -13.5402 708.903
-183.923 -35.6591 708.903
393.031 -807.976 708.9
-76.1235 -1013.65 708.898
112.568 7.00875 708.896
428.153 -205.938 708.895
157.123 -974.187 708.891
134.948 -1001.5 708.89
115.372 6.44133 708.889
248.132 -956.151 708.887
441.115 -225.344 708.886
394.996 -805.531 708.885
399.219 -167.377 708.885
-420.199 -806.141 708.885
-165.897 -7.93519 708.884
-230.583 -965.269 708.884
-513.394 -578.025 708.883
-515.913 -560.943 708.883
-363.64 -842.335 708.883
409.662 -786.147 708.881
-234.966 -963.064 708.88
-126.495 -1003.63 708.876
-174.876 -989 708.876
-91.1553 11.861 708.875
-93.4932 11.3227 708.873
-519.045 -479.262 708.872
389.724 -843.658 708.872
427.843 -757.702 708.866
-345.637 -112.152 708.863
-518.246 -536.684 708.862
498.095 -465.117 708.861
-69.6607 -1014.61 708.86
514.58 -570.045 708.859
167.743 -970.285 708.859
-512.392 -415.687 708.859
-178.37 -33.6192 708.859
-396.258 -835.814 708.857
-187.225 -15.307 708.855
-160.228 -5.97545 708.854
514.129 -573.791 708.854
157.857 -994.919 708.852
-149.424 -976.408 708.851
-99.8333 -1010.16 708.851
-366.447 -867.901 708.849
-461.275 -738.525 708.848
-226.882 -967.129 708.847
-519.239 -482.173 708.846
179.196 -966.077 708.843
452.229 -755.705 708.841
457.754 -254.461 708.839
-362.538 -871.811 708.839
416.095 -223.454 708.838
253.589 -953.222 708.836
-518.575 -528.439 708.835
-343.269 -109.907 708.831
214.648 -48.8165 708.828
419.546 -806.176 708.828
481.078 -697.183 708.828
515.44 -434.877 708.824
-412.436 -815.763 708.823
85.3241 -1012.22 708.822
-136.288 -19.4028 708.821
208.481 -975.779 708.82
-391.327 -158.628 708.817
86.8359 12.2162 708.816
516.867 -450.146 708.814
-511.5 -590.864 708.813
-457.067 -746.892 708.813
-111.932 7.07731 708.812
-448.535 -237.677 708.808
425.951 -797.791 708.807
-214.348 -951.312 708.807
-419.064 -228.564 708.806
448.305 -762.167 708.805
-392.682 -191.591 708.8
458.973 -744.223 708.793
-178.35 -966.798 708.793
421.534 -767.571 708.793
-518.372 -533.533 708.791
517.536 -545.49 708.785
-202.214 -978.728 708.785
256.912 -951.438 708.783
-219.875 -29.5852 708.782
498.302 -467.662 708.776
-463.669 -265.878 708.776
-498.628 -468.117 708.77
476.035 -707.915 708.768
-446.859 -234.554 708.768
-426.74 -204.126 708.768
-216.74 -972.229 708.768
-111.773 -1007.44 708.766
92.0516 11.1607 708.766
464.638 -266.541 708.765
-499.611 -504.376 708.765
-518.019 -542.346 708.764
91.6806 -1011.11 708.763
-36.6842 18.6285 708.761
499.363 -503.793 708.759
-519.2 -512.805 708.758
-67.1759 14.9578 708.753
499.035 -515.9 708.75
-214.608 -973.301 708.748
-223.447 -968.856 708.74
393.307 -839.879 708.736
-132.551 -18.4735 708.735
-171.63 -9.9168 708.734
139.443 -20.5272 708.729
149.341 -997.364 708.728
176.768 -988.668 708.728
-192.863 -17.2558 708.728
-363.8 -870.549 708.725
-132.739 -981.531 708.72
516.35 -555.34 708.716
-236.97 -962.057 708.716
-497.204 -545.921 708.712
-98.6693 10.131 708.712
-120.955 -15.5897 708.711
-407.809 -821.497 708.711
-390.73 -189.163 708.709
-73.1842 14.2343 708.708
-115.395 6.27993 708.707
-114.234 -1006.8 708.707
211.346 -25.6813 708.705
157.768 -26.1538 708.704
517.628 -458.296 708.698
236.174 -962.568 708.696
469.242 -722.371 708.695
160.906 -6.27472 708.695
-400.046 -831.119 708.694
-190.336 -983.191 708.694
-362.386 -128.032 708.693
-416.249 -188.76 708.692
197.056 -980.422 708.689
74.2984 -1014.15 708.688
397.146 -165.071 708.687
-518.523 -529.724 708.685
-340.851 -107.614 708.684
375.874 -141.404 708.684
163.587 -971.811 708.679
-226.315 -32.6113 708.678
-157.125 -25.8142 708.676
398.237 -801.498 708.676
76.8305 14.234 708.674
-402.79 -827.717 708.672
-109.207 -1008.1 708.667
-388.214 -845.783 708.667
515.631 -561.314 708.666
407.355 -822.137 708.664
-429.061 -207.526 708.663
-247.093 -956.967 708.661
404.147 -206.822 708.658
-411.228 -216.304 708.658
-424.592 -200.98 708.656
-165.588 -992.49 708.651
-178.39 -12.2533 708.65
-189.368 -37.6598 708.649
-497.412 -543.365 708.646
-512.463 -584.334 708.643
-519.769 -498.536 708.642
-399.239 -800.012 708.639
439.155 -221.914 708.639
430.381 -246.761 708.638
206.358 -45.251 708.636
-107.894 8.00708 708.636
-467.688 -725.771 708.634
456.803 -252.797 708.624
-353.029 -881.319 708.622
-455.245 -750.516 708.621
184.147 -985.669 708.619
218.543 -28.8319 708.618
370.823 -863.593 708.617
-499.017 -482.482 708.616
414.79 -221.639 708.614
424.615 -201.041 708.61
122.343 5.03051 708.608
-400.212 -200.96 708.606
463.23 -735.164 708.604
-349.138 -885.211 708.604
-499.525 -501.236 708.603
-217.813 -28.616 708.603
-499.659 -506.202 708.594
443.581 -270.109 708.593
251.235 -954.485 708.592
139.964 -979.683 708.585
453.125 -246.361 708.584
386.675 -815.881 708.582
-451.962 -757.045 708.579
-382.698 -179.171 708.578
397.019 -803.013 708.578
-519.885 -495.648 708.577
200.335 -979.09 708.576
-64.836 -1015.32 708.571
125.832 -1004.11 708.57
242.076 -959.4 708.569
108.742 7.78305 708.568
215.18 -27.3598 708.564
376.238 -857.882 708.564
-128.709 -982.768 708.553
154.895 -995.77 708.551
506.246 -383.665 708.547
-425.182 -798.815 708.546
122.185 -1005.16 708.54
-517.292 -551.59 708.529
129.126 -1003.17 708.526
430.181 -792.009 708.518
503.53 -370.243 708.518
517.945 -542.091 708.51
-428.161 -206.208 708.508
-139.708 -20.2537 708.507
-231.385 -34.9939 708.501
186.686 -36.789 708.5
-359.224 -125.034 708.499
131.183 -981.866 708.494
-378.771 -143.887 708.492
-445.367 -767.489 708.491
403.753 -826.853 708.491
514.588 -425.768 708.489
-475.117 -710.998 708.489
463.504 -264.523 708.486
519.308 -500.085 708.486
409.226 -179.741 708.485
498.949 -519.064 708.483
-518.674 -473.697 708.482
-170.735 -30.8148 708.48
-460.771 -260.479 708.48
460.43 -741.124 708.477
-381.979 -852.37 708.468
-376.206 -171.095 708.467
-54.8471 -1016.79 708.464
-392.189 -840.857 708.451
438.396 -220.586 708.45
119.5 -1005.93 708.445
-240.823 -960.119 708.445
155.706 -25.5213 708.443
519.121 -514.135 708.442
-208.991 -24.4706 708.437
-498.911 -478.619 708.434
-202.005 -21.1876 708.428
-407.279 -822.154 708.407
80.3036 -1013.1 708.404
-204.677 -22.4435 708.403
-209.779 -24.841 708.397
-103.59 -1009.55 708.393
385.501 -182.034 708.392
100.43 -1009.58 708.392
134.532 2.06222 708.39
103.059 -1009.12 708.386
193.721 -39.8154 708.383
-257.257 -951.856 708.382
395.426 -194.682 708.378
383.139 -179.401 708.378
-373.234 -861.114 708.375
-156.375 -4.64359 708.371
-414.094 -185.603 708.365
-467.25 -726.641 708.364
-97.4807 -1010.5 708.361
519.332 -498.287 708.36
113.613 -1007.28 708.353
189.683 -16.1968 708.35
-404.048 -793.316 708.349
515.326 -563.85 708.344
-88.7656 12.3451 708.343
-151.533 -2.96996 708.333
422.335 -197.886 708.332
513.151 -417.781 708.332
515.026 -430.454 708.332
395.99 -163.785 708.326
190.002 -962.106 708.326
-447.484 -764.205 708.32
-76.211 13.8685 708.315
-425.322 -762.185 708.312
417.196 -774.357 708.306
-108.756 -987.522 708.302
142.944 -999.201 708.296
518.818 -534.711 708.286
106.925 8.15079 708.284
-368.737 -865.612 708.282
147.695 -997.837 708.275
506.845 -386.624 708.267
-396.255 -196.037 708.258
-498.672 -527.878 708.25
427.959 -795.161 708.247
-234.31 -36.3684 708.244
-413.195 -780.582 708.239
362.295 -156.167 708.234
-386.793 -847.543 708.234
172.631 -968.488 708.233
155.643 -4.61127 708.23
-213.021 -974.099 708.224
497.637 -545.931 708.219
-159.517 -994.771 708.213
470.613 -719.454 708.211
-141.878 -978.724 708.206
451.859 -244.144 708.199
417.921 -191.776 708.195
-124.034 4.29089 708.193
-342.055 -108.755 708.191
67.9083 -1015.27 708.191
374.363 -169.62 708.19
-105.681 8.51656 708.188
519.374 -495.141 708.186
266.896 -946.081 708.18
-148.04 -1.76286 708.176
-154.869 -996.299 708.175
103.97 8.74863 708.174
-499.418 -497.373 708.167
-400.649 -798.046 708.165
381.559 -147.729 708.159
-57.9154 16.0703 708.143
-497.917 -537.152 708.143
-473.146 -714.916 708.137
-438.683 -221.62 708.137
-130.267 2.85574 708.137
516.773 -551.827 708.134
-182.587 -964.974 708.134
145.201 -1.3104 708.131
-518.944 -519.132 708.121
468.389 -724.186 708.119
-86.128 -1012.18 708.117
-470.089 -277.842 708.114
146.385 -22.66 708.113
516.049 -557.845 708.111
-498.847 -476.286 708.111
454.182 -248.21 708.111
-117.146 -14.6437 708.11
107.135 -987.846 708.105
-403.993 -173.499 708.103
-424.245 -800.269 708.091
-194.509 -981.623 708.09
455.504 -250.523 708.089
407.654 -211.705 708.087
-129.602 -1002.83 708.087
-52.7294 -1017.1 708.085
-192.674 -960.634 708.084
462.167 -737.427 708.072
-408.034 -178.242 708.07
-474.035 -713.149 708.058
89.0666 -1011.57 708.056
-429.977 -245.638 708.046
-420.55 -230.891 708.044
-199.105 -957.868 708.039
-498.787 -474.092 708.038
-192.845 -982.249 708.035
-511.999 -413.435 708.028
454.373 -752.175 708.019
-397.967 -801.78 708.019
-405.759 -175.571 708.006
386.212 -847.363 708.002
-154.296 -974.911 708.001
519.559 -479.431 707.999
406.884 -176.5 707.998
176.395 -11.171 707.998
-210.922 -975.155 707.998
-70.018 14.6128 707.994
396.037 -804.233 707.992
160.029 -973.117 707.985
204.373 -977.448 707.985
519.162 -511.007 707.982
-514.258 -426.359 707.981
507.642 -390.56 707.966
131.958 2.8761 707.965
-519.098 -515.278 707.961
510.585 -405.105 707.957
-180.346 -34.347 707.956
75.6912 -6.13412 707.95
165.957 -970.939 707.943
384.25 -818.896 707.942
512.386 -588.264 707.934
-431.828 -248.535 707.933
519.297 -476.157 707.932
-517.116 -450.341 707.931
-386.635 -184.071 707.93
213.977 -973.545 707.927
434.694 -214.992 707.926
-517.667 -548.954 707.925
-148.967 -976.547 707.92
460.329 -258.968 707.919
127.611 3.96439 707.918
-461.883 -737.316 707.918
383.536 -149.928 707.917
429.946 -208.42 707.915
398.019 -198.292 707.908
-409.233 -786.095 707.907
-450.411 -241.174 707.899
-220.284 -970.447 707.895
509.791 -401.182 707.883
232.021 -34.733 707.882
139.4 0.523348 707.876
410.736 -181.832 707.873
379.322 -145.24 707.873
474.292 -711.625 707.866
-350.548 -883.801 707.862
391.452 -841.836 707.847
163.131 -27.8022 707.847
399.012 -199.675 707.844
499.466 -499.952 707.842
427.036 -204.392 707.838
497.288 -455.226 707.829
-184.485 -985.39 707.829
-466.964 -272.018 707.826
-417.359 -774.782 707.821
-180.862 -965.715 707.82
498.552 -533.676 707.812
-145.374 -977.65 707.804
-470.835 -719.513 707.795
137.957 -1000.63 707.789
214.861 -973.186 707.782
-496.188 -558.365 707.781
-138.626 -979.722 707.779
-442.822 -227.682 707.779
-205.333 -977.556 707.754
-417.975 -191.288 707.748
496.516 -445.749 707.745
135.294 -980.843 707.738
446.855 -764.554 707.737
-62.5042 -1015.66 707.736
129.843 -17.5814 707.736
444.95 -232.054 707.715
499.044 -476.797 707.707
511.199 -408.139 707.705
499.509 -498.321 707.689
426.329 -203.413 707.676
109.426 -12.6078 707.664
426.981 -240.751 707.66
-118.482 5.56906 707.649
-389.591 -156.59 707.647
496.404 -444.38 707.626
-409.887 -214.211 707.616
-358.555 -847.999 707.609
507.274 -388.743 707.593
163.814 -7.19406 707.586
-398.625 -832.88 707.583
119.848 5.5354 707.569
107.33 -12.2057 707.566
498.822 -523.705 707.557
497.33 -548.174 707.549
233.387 -964.064 707.546
447.012 -235.664 707.527
378.471 -826.085 707.515
409.275 -213.963 707.506
195.308 -18.6597 707.485
143.542 -21.7884 707.476
-499.692 -507.603 707.452
-380.633 -853.716 707.452
-511.333 -409.627 707.45
183.419 -13.4546 707.444
165.027 -7.57752 707.438
-519.642 -501.598 707.434
457.127 -747.641 707.426
498.764 -525.815 707.417
515.087 -431.101 707.398
-445.722 -232.435 707.395
-139.045 -1000.39 707.394
-162.245 -993.746 707.37
-353.848 -119.937 707.356
-430.257 -753.453 707.348
264.887 -947.159 707.34
378.735 -174.495 707.326
114.942 -13.6669 707.311
-440.419 -775.169 707.305
-509.812 -602.236 707.293
-66.3453 -1015.1 707.27
412.095 -183.712 707.263
-191.017 -38.2685 707.244
431.366 -790.057 707.241
-519.956 -493.485 707.24
499.428 -481.523 707.226
-231.944 -964.584 707.214
-402.104 -828.568 707.205
-515.361 -564.663 707.197
-218.257 -971.467 707.189
137.677 1.06827 707.188
-151.47 -975.777 707.186
-421.573 -232.494 707.168
400.949 -202.374 707.168
-437.18 -780.195 707.156
-412.867 -183.917 707.119
181.138 -34.4052 707.099
-518.134 -539.316 707.091
363.324 -871.503 707.073
-80.3322 -1013.03 707.066
-138.445 0.972688 707.059
-347.012 -113.456 707.043
-100.325 9.74977 707.043
435.632 -783.033 707.011
-468.837 -723.485 707.002
411.362 -783.481 707.001
109.654 -1007.97 706.99
-158.106 -5.24197 706.989
-422.12 -803.567 706.975
-419.54 -229.315 706.967
411.032 -182.241 706.966
-377.666 -826.696 706.959
128.238 3.83746 706.956
239.674 -960.69 706.954
428.749 -756.278 706.946
498.643 -530.27 706.943
-180.507 -12.9849 706.943
-217.424 -28.4334 706.938
497.596 -459.036 706.934
-127.416 -17.1998 706.921
477.505 -704.787 706.919
476.965 -705.935 706.915
158.546 -26.3962 706.914
-402.486 -203.793 706.909
-186.419 -963.323 706.908
-183.337 -35.4476 706.907
442.742 -228.19 706.905
-519.311 -509.834 706.905
154.046 -975.313 706.904
-64.9721 15.2162 706.901
499.11 -512.995 706.895
-212.031 -952.305 706.889
147.878 -997.784 706.885
-109.786 -12.8156 706.881
-222.655 -30.8913 706.881
519.234 -505.663 706.878
464.348 -266.001 706.877
-250.303 -955.352 706.876
151.32 -996.796 706.866
-517.151 -450.889 706.859
-79.2865 13.4928 706.85
-498.461 -530.417 706.849
465.722 -729.862 706.848
164.481 -993.018 706.847
179.421 -987.59 706.846
-365.494 -130.979 706.838
-434.551 -215.568 706.837
517.505 -545.748 706.837
-395.123 -837.219 706.829
212.183 -47.76 706.826
394.251 -193.05 706.824
-378.837 -855.512 706.822
213.913 -973.571 706.821
516.536 -446.604 706.82
498.715 -527.574 706.813
-180.352 -34.3513 706.81
-211.173 -952.674 706.808
-467.679 -273.35 706.807
187.982 -15.4523 706.804
61.8768 -1016.29 706.797
-416.896 -775.424 706.796
-424.747 -763.197 706.795
-358.836 -875.513 706.792
95.666 10.4293 706.79
-396.816 -803.378 706.789
-162.088 -27.6413 706.788
-124.376 -16.4442 706.787
143.329 -0.718522 706.786
479.759 -699.991 706.782
-165.666 -28.9561 706.776
130.897 -17.907 706.773
-499.372 -519.233 706.764
-91.0673 -1011.45 706.76
65.8073 -1015.63 706.76
503.83 -371.724 706.757
375.84 -141.366 706.753
-405.415 -824.464 706.747
399.363 -200.167 706.747
-496.077 -559.694 706.745
-364.561 -841.302 706.744
375.045 -170.384 706.741
-373.281 -861.068 706.72
380.691 -853.185 706.717
100.865 9.37708 706.707
-390.424 -188.788 706.702
-442.511 -771.922 706.702
-519.955 -493.129 706.701
377.843 -173.503 706.7
-453.18 -246.333 706.7
-418.099 -191.469 706.699
83.2823 -1012.58 706.696
-437.701 -220.181 706.692
-435.804 -782.331 706.69
-243.138 -958.955 706.688
370.855 -135.82 706.685
450.795 -242.283 706.684
416.958 -774.724 706.683
412.459 -781.763 706.683
513.734 -420.665 706.682
515.94 -440.233 706.679
419.406 -770.894 706.678
119.081 -984.872 706.674
391.229 -158.488 706.673
505.428 -379.623 706.673
107.94 -12.3245 706.669
194.835 -981.325 706.668
370.697 -863.727 706.667
-378.253 -143.279 706.662
115.859 6.34271 706.657
-198.229 -980.226 706.656
-232.876 -964.115 706.655
-515.14 -431.398 706.655
-49.4787 -1017.58 706.653
439.406 -776.82 706.648
393.13 -191.491 706.639
-429.153 -792.653 706.636
429.126 -793.634 706.632
-515.811 -435.24 706.631
-519.516 -486.367 706.63
222.413 -969.953 706.625
406.765 -210.473 706.621
404.78 -207.708 706.62
-240.948 -39.4877 706.617
403.298 -827.448 706.616
-124.405 4.20535 706.612
497.381 -547.785 706.611
201.68 -21.4492 706.611
517.905 -542.421 706.61
376.973 -827.946 706.61
404.869 -825.392 706.604
418.82 -807.126 706.603
-387.22 -153.806 706.603
388.951 -813.043 706.601
519.02 -521.697 706.6
-40.1844 18.1991 706.599
459.034 -256.7 706.597
519.411 -492.308 706.595
476.161 -707.646 706.592
-408.127 -787.632 706.591
244.933 -957.867 706.587
-423.709 -765.032 706.586
-431.159 -789.539 706.585
127.677 -1003.58 706.583
109.282 -987.309 706.581
369.237 -134.02 706.58
-445.268 -767.644 706.575
-45.7794 17.5255 706.571
-449.156 -761.609 706.571
-204.248 -977.964 706.566
-219.086 -971.05 706.566
170.791 -991.098 706.562
-415.685 -777.11 706.562
397.119 -197.044 706.561
229.066 -966.382 706.56
251.231 -954.488 706.559
166.3 -992.496 706.557
397.238 -165.173 706.553
515.088 -565.822 706.55
-432.851 -786.913 706.55
-519.746 -498.92 706.54
383.219 -149.576 706.534
-76.3725 13.8424 706.533
-440.446 -224.202 706.532
-412.555 -218.388 706.532
114.141 -986.101 706.526
450.938 -757.832 706.524
-511.96 -413.209 706.523
-457.015 -746.997 706.523
-378.09 -173.444 706.518
-213.82 -973.697 706.518
378.638 -855.351 706.517
441.822 -267.006 706.506
-252.764 -954.115 706.5
-205.683 -955.035 706.5
88.9232 11.7938 706.498
183.583 -985.898 706.498
519.273 -502.69 706.495
-385.298 -182.412 706.492
372.33 -862.004 706.485
261.712 -948.863 706.485
248.371 -956.022 706.485
-340.265 -107.059 706.484
497.362 -456.17 706.481
514.228 -423.125 706.48
461.495 -738.857 706.477
-131.006 -982.059 706.475
-497.624 -453.935 706.473
118.381 5.8323 706.473
-510.161 -599.906 706.469
406.012 -175.293 706.468
-411.353 -216.508 706.468
426.226 -203.27 706.467
185.988 -984.921 706.464
179.74 -12.2283 706.464
-123.468 -1004.41 706.463
75.14 -1014 706.461
-498.857 -476.97 706.46
122.668 -983.98 706.457
-515.169 -565.948 706.454
-156.323 -974.286 706.451
111.961 -1007.57 706.45
437.877 -779.337 706.45
-181.799 -34.8834 706.45
461.466 -260.957 706.45
233.548 -35.4393 706.449
-416.206 -224.1 706.444
407.304 -177.081 706.444
-518.071 -464.691 706.439
-498.292 -532.481 706.439
-420.699 -231.13 706.434
402.517 -204.56 706.433
-366.403 -131.841 706.429
-517.083 -552.97 706.426
-129.483 -1002.86 706.42
-71.9277 -1014.27 706.417
-428.295 -243.014 706.416
151.605 -24.266 706.416
-499.275 -492.406 706.415
-499.167 -521.735 706.415
178.888 -966.186 706.413
-386.6 -816.735 706.412
496.164 -441.461 706.408
106.669 8.20258 706.406
113.873 6.74469 706.405
518.899 -530.817 706.404
379.886 -824.32 706.4
-54.5424 16.4699 706.399
-381.988 -821.876 706.397
-388.612 -155.441 706.396
508.912 -396.838 706.393
115.034 -1007.03 706.392
-180.515 -965.862 706.387
163.298 -971.913 706.387
-115.83 6.17986 706.383
-412.962 -780.899 706.382
190.605 -961.881 706.381
-169.298 -30.2912 706.379
381.737 -147.927 706.377
-51.8748 16.7909 706.376
-221.96 -969.605 706.375
463.199 -263.989 706.375
110.303 -12.7785 706.372
134.282 -981.091 706.371
509.395 -399.224 706.367
-517.526 -456.513 706.366
-462.129 -263.009 706.359
376.296 -171.779 706.357
187.85 -37.2938 706.356
385.148 -181.647 706.355
256.977 -951.404 706.354
-428.233 -757.029 706.353
413.081 -185.076 706.352
-42.8292 17.8798 706.351
409.741 -180.454 706.35
-517.691 -458.998 706.349
-191.878 -982.612 706.348
167.399 -970.406 706.345
-395.062 -163.013 706.344
394.6 -162.239 706.342
-175.444 -11.2352 706.34
79.1956 13.7624 706.339
-102.792 -1009.72 706.337
518.779 -535.159 706.336
498.775 -473.528 706.335
-188.542 -37.3609 706.335
-356.389 -122.346 706.334
398.707 -833.459 706.333
380.228 -146.248 706.333
508.029 -392.473 706.331
452.015 -244.419 706.331
166.368 -28.7992 706.329
517.599 -457.987 706.329
185.736 -963.67 706.326
-190.533 -16.4504 706.325
418.119 -192.05 706.324
514.818 -428.227 706.324
-147.86 -1.70044 706.323
513.414 -579.73 706.322
-145.045 -0.727661 706.318
156.541 -974.396 706.317
-394.394 -806.749 706.317
-360.745 -126.476 706.315
-425.597 -761.691 706.315
-499.21 -490.021 706.312
-177.978 -966.953 706.311
-156.092 -25.4395 706.309
496.562 -446.346 706.307
-410.983 -783.654 706.304
137.01 -19.7847 706.303
-102.501 9.24866 706.303
-409.099 -786.278 706.298
455.246 -750.737 706.297
103.861 -988.657 706.296
-373.929 -168.269 706.296
518.969 -525.554 706.296
-424.374 -236.879 706.295
470.198 -720.337 706.294
-519.487 -505.387 706.293
106.64 -987.966 706.293
402.332 -828.714 706.292
474.09 -712.055 706.291
-457.299 -254.009 706.291
516.224 -443.274 706.291
139.102 -979.893 706.288
-470.755 -719.671 706.287
-376.038 -170.893 706.285
399.49 -167.679 706.283
228.075 -966.914 706.278
471.454 -717.664 706.278
198.676 -979.764 706.275
-363.007 -843.034 706.274
157.903 -5.32559 706.271
170.682 -969.2 706.269
-418.474 -808.279 706.269
191.546 -38.8838 706.269
-369.71 -134.976 706.268
457.756 -254.465 706.267
-426.906 -240.841 706.265
-383.358 -149.273 706.263
374.523 -830.993 706.263
519.189 -509.038 706.261
-132.601 2.3183 706.258
519.504 -485.338 706.257
-162.57 -972.367 706.256
140.194 -20.7626 706.25
182.571 -964.832 706.247
-235.307 -36.8368 706.247
443.548 -229.602 706.246
-518.764 -523.465 706.237
377.837 -856.195 706.236
197.045 -41.2494 706.229
-82.202 -1012.76 706.228
-437.632 -779.494 706.228
-464.638 -731.836 706.227
-69.7498 14.6385 706.227
514.376 -571.739 706.221
130.726 -981.976 706.22
-53.3018 -1017.02 706.22
430.341 -791.745 706.215
-455.274 -750.459 706.212
514.606 -425.953 706.21
-159.788 -994.669 706.201
-244.311 -41.0678 706.199
211.364 -974.607 706.197
401.162 -797.852 706.195
-512.915 -581.226 706.193
-427.044 -759.131 706.193
-114.672 -986.383 706.192
-417.667 -809.28 706.188
424.576 -200.987 706.187
446.004 -233.899 706.187
-518.612 -527.253 706.186
-114.318 -13.944 706.185
228.947 -33.387 706.185
-194.198 -981.74 706.184
-439.14 -777.154 706.183
367.969 -132.609 706.179
386.096 -847.485 706.174
-397.529 -834.238 706.174
-138.203 -1000.61 706.174
131.373 3.06105 706.17
-225.225 -967.962 706.164
-401.533 -796.81 706.163
125.482 -983.28 706.156
160.966 -27.1407 706.156
-352.921 -119.058 706.155
518.479 -537.653 706.155
-447.948 -236.584 706.154
-55.2061 -1016.74 706.152
-128.616 -982.792 706.151
-519.287 -482.95 706.149
400.707 -830.841 706.148
-511.074 -408.138 706.145
-470.825 -279.329 706.135
-100.651 -10.5453 706.133
266.89 -946.084 706.133
-518.276 -467.781 706.133
447.821 -237.078 706.131
431.013 -209.897 706.127
-447.391 -764.349 706.125
-57.0575 16.1661 706.122
-182.359 -13.6251 706.121
511.264 -408.459 706.12
-136.42 1.43903 706.12
221.005 -29.9099 706.119
-171.702 -9.94157 706.118
454.411 -752.113 706.113
-499.009 -482.642 706.113
-350.696 -883.653 706.112
-512.426 -415.872 706.111
-135.37 -1001.34 706.11
-368.649 -865.7 706.109
128.08 -17.0431 706.108
-110.854 7.32541 706.108
-518.733 -474.628 706.107
-455.195 -250.087 706.106
458.853 -744.479 706.104
-431.152 -247.484 706.103
404.499 -173.325 706.103
-406.176 -790.346 706.102
-365.864 -868.485 706.102
512.085 -590.184 706.1
151.919 -3.43379 706.098
-414.011 -185.482 706.096
-403.388 -794.227 706.092
-512.332 -585.181 706.092
453.065 -754.328 706.089
165.594 -7.75687 706.089
-141.866 -999.66 706.089
-172.057 -990.059 706.087
519.096 -516.003 706.086
-256.196 -952.389 706.085
-337.64 -104.57 706.079
498.494 -470.082 706.079
-369.768 -864.581 706.078
-166.055 -7.98958 706.076
429.768 -245.688 706.076
-380.022 -175.849 706.075
-423.404 -235.363 706.074
-175.108 -32.4262 706.074
393.143 -160.618 706.073
-199.024 -957.899 706.073
499.513 -498.091 706.072
-516.953 -447.93 706.07
515.755 -438.251 706.068
-516.152 -437.187 706.068
-230.139 -34.4083 706.063
-496.956 -548.874 706.061
-518.253 -536.237 706.06
-458.912 -257.014 706.058
417.689 -808.608 706.058
146.417 -1.69455 706.053
-436.588 -218.551 706.05
180.83 -12.5731 706.049
454.531 -248.82 706.048
388.061 -845.412 706.047
113.97 -13.4828 706.047
-72.2053 14.3423 706.047
-133.358 -18.6793 706.047
442.717 -771.367 706.046
-186.514 -36.6165 706.043
-496.44 -555.219 706.043
-467.782 -725.584 706.041
-518.36 -533.557 706.04
396.829 -835.918 706.037
217.283 -28.2804 706.036
-383.971 -180.762 706.035
-426.32 -797.048 706.033
-395.702 -836.503 706.03
416.199 -189.393 706.03
380.769 -176.766 706.025
519.533 -483.138 706.024
440.314 -223.942 706.023
208.793 -975.652 706.023
-202.511 -21.4254 706.019
-224.3 -31.6642 706.019
-443.853 -769.839 706.017
518.838 -471.241 706.013
-151.815 -23.8688 706.012
212.227 -26.067 706.01
92.2444 11.1217 706.01
-519.682 -488.878 706.007
-112.516 -1007.25 706.004
424.098 -800.217 706.001
-441.25 -734.004 705.999
-232.086 -35.323 705.996
-452.738 -755.502 705.995
423.922 -235.346 705.994
507.085 -387.808 705.994
-172.235 -31.3708 705.992
145.713 -998.406 705.992
-404.244 -173.793 705.991
-400.36 -201.152 705.99
429.938 -754.415 705.988
-518.522 -529.493 705.987
-429.767 -245.318 705.983
438.796 -221.286 705.983
-519.002 -517.478 705.981
157.885 -994.912 705.98
-229.035 -966.047 705.979
-439.095 -222.223 705.979
-424.386 -200.679 705.977
-125.691 3.90924 705.977
-390.705 -842.695 705.972
-470.127 -277.911 705.972
-128.906 3.16904 705.972
-109.225 -987.428 705.971
-391.893 -159.293 705.97
-429.059 -755.567 705.966
-460.218 -740.627 705.962
-94.1916 11.1619 705.961
-375.927 -828.63 705.955
-418.038 -226.968 705.955
373.447 -860.826 705.955
-204.283 -22.2583 705.953
-398.783 -800.638 705.953
-517.991 -542.776 705.952
149.626 -2.70898 705.95
391.062 -842.248 705.949
-442.241 -732.251 705.948
105.354 -988.285 705.948
-109.261 -1008.09 705.945
195.288 -40.4944 705.942
-198.157 -19.3794 705.942
394.344 -838.785 705.941
519.039 -520.244 705.937
-201.786 -978.889 705.937
-496.234 -557.738 705.936
-192.298 -960.792 705.935
-461.186 -261.252 705.931
-247.479 -956.772 705.931
372.238 -137.359 705.928
512.781 -584.986 705.928
-63.9808 -1015.44 705.927
-135.467 -19.2041 705.925
218.569 -971.679 705.923
-430.226 -209.233 705.923
-189.658 -961.928 705.921
-398.832 -199.25 705.919
-106.813 -12.0781 705.917
448.607 -238.454 705.909
382.123 -821.536 705.904
452.017 -756.054 705.903
-414.99 -812.597 705.902
-159.473 -973.317 705.9
-190.88 -982.987 705.899
464.667 -732.107 705.897
-420.944 -195.637 705.893
515.651 -561.144 705.893
395.698 -163.46 705.892
-449.139 -238.802 705.891
385.11 -817.82 705.888
-394.67 -194.073 705.885
188.24 -984.006 705.882
-361.262 -873.087 705.881
-514.72 -428.991 705.878
-467.24 -272.532 705.877
-498.958 -480.794 705.874
70.576 -1014.8 705.873
-497.967 -536.461 705.869
-393.03 -839.813 705.867
100.749 -1009.53 705.867
-344.858 -111.414 705.865
197.098 -19.4431 705.865
-126.365 -1003.67 705.863
162.843 -27.7177 705.86
-407.312 -177.395 705.859
-104.269 -1009.38 705.858
-432.88 -213.12 705.856
-86.5582 12.6137 705.855
184.984 -14.1395 705.854
-95.1443 -1010.85 705.853
-498.946 -524.438 705.852
391.38 -810.02 705.852
-118.09 5.65945 705.85
98.6617 9.82299 705.849
154.518 -25.1614 705.849
-144.986 -998.853 705.847
-154.044 -974.984 705.838
-441.666 -773.234 705.836
-498.527 -464.904 705.836
-191.838 -38.5729 705.83
440.956 -774.267 705.829
-400.198 -798.667 705.828
-398.557 -832.964 705.828
504.346 -374.273 705.828
-499.59 -504.122 705.826
141.296 -979.346 705.824
504.993 -377.473 705.823
80.2462 -1013.11 705.822
-177.727 -987.929 705.822
136.777 -1000.97 705.821
-409.751 -819.09 705.818
187.251 -963.112 705.818
-351.061 -117.295 705.808
-155.588 -4.37161 705.806
-513.147 -419.995 705.805
139.232 0.576601 705.805
499.302 -505.863 705.802
426.744 -796.752 705.801
77.5181 14.1019 705.796
478.637 -702.378 705.796
-126.848 -983.334 705.792
-513.77 -575.424 705.791
-413.601 -780.008 705.789
435.627 -216.284 705.788
519.458 -488.77 705.786
425.784 -798.009 705.785
499.33 -480.35 705.784
420.224 -194.964 705.782
-399.347 -168.044 705.78
499.043 -476.824 705.779
499.598 -494.908 705.779
-364.886 -130.402 705.778
134.68 -19.0704 705.776
506.421 -384.528 705.776
-519.079 -479.835 705.776
-208.649 -24.31 705.775
253.167 -953.449 705.774
517.232 -454.061 705.774
-423.459 -801.489 705.773
-397.87 -198.055 705.773
499.353 -503.969 705.771
104.699 8.60117 705.771
-89.88 12.1546 705.768
498.836 -523.061 705.764
373.522 -138.787 705.764
-111.321 -13.1994 705.764
209.176 -24.7312 705.759
364.922 -869.817 705.758
-255.111 -952.935 705.757
-518.85 -521.273 705.755
-133.392 -1001.85 705.747
-398.167 -801.495 705.743
-395.662 -195.307 705.742
428.359 -243.196 705.741
-348.048 -886.301 705.741
210.228 -46.9213 705.739
-510.626 -596.744 705.737
-404.254 -825.903 705.736
-158.349 -995.21 705.736
518.31 -465.59 705.734
-239.866 -960.6 705.732
-425.197 -798.791 705.731
515.419 -434.653 705.728
-429.045 -207.503 705.727
359.266 -152.799 705.726
-417.11 -225.517 705.724
-76.5523 -993.697 705.722
433.574 -213.441 705.719
399.574 -799.826 705.718
519.374 -495.094 705.717
460.513 -740.946 705.715
-382.095 -852.254 705.711
388.349 -155.283 705.71
-82.0132 13.1603 705.71
175.617 -989.136 705.71
106.867 -1008.46 705.71
-37.3495 18.537 705.708
-196.101 -959.156 705.703
227.042 -32.5532 705.703
381.601 -852.226 705.703
-151.256 -2.87433 705.701
-106.064 8.42838 705.697
-375.328 -140.302 705.695
421.789 -803.24 705.693
-395.996 -164.109 705.692
-516.69 -555.627 705.689
-344.298 -110.882 705.688
-118.192 -1005.78 705.688
405.855 -824.102 705.685
-139.569 -20.2246 705.681
-162.464 -6.74855 705.68
-196.345 -980.934 705.679
516.77 -449.116 705.677
-186.723 -984.549 705.677
-427.834 -205.729 705.676
515.995 -558.292 705.674
-120.654 -1005.14 705.673
95.053 -1010.52 705.672
-467.306 -726.531 705.672
446.762 -764.707 705.671
-69.0158 -1014.7 705.67
196.406 -980.687 705.67
-364.949 -869.4 705.669
177.307 -11.4594 705.666
386.175 -816.495 705.657
147.085 -22.8795 705.654
-464.825 -268.032 705.654
-121.113 -15.6348 705.646
-121.457 4.88425 705.645
-147.935 -998.091 705.643
-415.947 -188.317 705.641
-84.7275 12.8333 705.64
498.573 -532.766 705.636
-352.626 -881.723 705.635
236.237 -962.534 705.633
414.902 -221.804 705.633
-386.691 -184.148 705.632
-450.115 -760.122 705.631
-443.444 -228.594 705.63
-195.87 -18.3654 705.628
-514.342 -571.545 705.626
160.615 -972.897 705.625
383.657 -850.057 705.623
-517.623 -549.297 705.622
-85.776 -1012.23 705.622
517.354 -455.365 705.616
463.419 -734.764 705.612
-373.795 -831.006 705.609
-404.785 -792.281 705.608
205.741 -23.2275 705.607
-192.87 -17.2585 705.606
395.125 -194.271 705.606
-117.612 -14.7642 705.603
413.518 -814.068 705.599
409.933 -818.761 705.598
-357.541 -123.439 705.596
-376.091 -858.257 705.589
438.338 -220.485 705.587
-360.987 -845.283 705.586
517.139 -548.786 705.583
-338.943 -105.805 705.583
-186.7 -15.1256 705.581
498.314 -467.879 705.578
397.838 -801.985 705.575
361.813 -155.637 705.572
-143.791 -978.132 705.571
-49.4011 17.0857 705.571
467.291 -726.523 705.57
-235.361 -962.866 705.57
214.77 -27.1801 705.569
-474.965 -711.298 705.566
176.939 -32.602 705.564
115.705 -985.71 705.563
-511.423 -591.336 705.56
-183.475 -985.769 705.558
512.379 -588.325 705.557
-497.408 -543.306 705.555
416.342 -810.371 705.55
428.541 -206.475 705.548
511.9 -411.601 705.547
92.0079 -1011.05 705.546
163.903 -7.22217 705.543
416.792 -224.435 705.542
-170.425 -990.673 705.542
-102.664 -11.0469 705.54
179.081 -33.5233 705.535
-497.321 -451.732 705.532
-401.181 -170.197 705.531
175.16 -967.554 705.53
241.629 -959.641 705.528
121.969 -1005.22 705.525
407.565 -821.862 705.523
-141.578 -20.7245 705.514
-516.325 -558.097 705.512
374.76 -140.165 705.511
-446.953 -234.729 705.51
84.1198 12.7659 705.509
-449.891 -240.204 705.509
412.874 -218.981 705.506
513.686 -577.47 705.505
-83.777 -1012.52 705.505
-453.904 -753.183 705.504
237.605 -961.8 705.504
-412.58 -815.584 705.503
373.636 -168.817 705.5
196.16 -19.0329 705.499
499.191 -509.928 705.499
418.065 -226.208 705.497
-384.755 -849.594 705.496
160.582 -6.1723 705.496
-445.224 -231.508 705.494
-205.941 -23.0374 705.494
-160.346 -6.01642 705.485
422.722 -198.421 705.484
-498.73 -472.443 705.483
413.999 -779.349 705.482
205.185 -977.119 705.482
519.136 -513.001 705.479
472.879 -714.632 705.476
-381.25 -146.797 705.474
-165.728 -992.438 705.467
415.036 -812.081 705.467
-392.857 -808.886 705.466
191.453 -16.972 705.46
-401.916 -171.059 705.46
-237.267 -961.907 705.459
-400.114 -831.034 705.458
-373.151 -138.239 705.458
-426.652 -203.998 705.452
191.272 -982.773 705.444
199.375 -42.2534 705.444
377.62 -143.346 705.44
-108.681 7.82584 705.44
-61.5612 -1015.8 705.439
410.292 -785.149 705.436
497.048 -452.331 705.435
-499.322 -494.325 705.434
456.399 -252.09 705.428
-519.029 -516.762 705.424
200.194 -20.7987 705.422
-514.259 -426.352 705.42
516.357 -555.279 705.417
160.629 -994.124 705.415
-510.642 -405.663 705.413
68.77 -1015.12 705.408
-213.477 -26.5787 705.404
-465.814 -729.499 705.4
-210.404 -975.415 705.4
-348.024 -114.415 705.397
513.907 -575.635 705.393
185.388 -36.2368 705.392
-498.682 -470.714 705.392
498.049 -464.631 705.388
259.1 -950.264 705.369
-105.917 -1008.95 705.369
414.877 -777.976 705.367
120.685 5.366 705.367
435.145 -783.834 705.363
-398.224 -166.726 705.358
153.791 -996.087 705.357
111.105 7.30475 705.353
-112.55 -986.788 705.352
-499.471 -499.84 705.347
-130.425 -17.9511 705.339
364.389 -158.51 705.339
459.851 -258.13 705.336
206.649 -45.3826 705.333
-60.469 15.7525 705.331
-385.161 -818.337 705.328
75.9901 -6.19635 705.323
-183.386 -964.625 705.322
-472 -717.196 705.32
-381.435 -177.609 705.318
422.184 -766.544 705.316
497.637 -545.892 705.313
425.41 -761.496 705.307
118.566 -1006.2 705.304
430.752 -753.139 705.302
-499.092 -485.862 705.299
-358.412 -848.152 705.298
504.662 -375.838 705.294
-74.6559 -1013.87 705.292
518.932 -528.352 705.29
-180.246 -986.982 705.287
-511.998 -587.43 705.287
-208.374 -953.875 705.282
512.983 -416.951 705.277
224.146 -969.023 705.268
140.045 -1000.03 705.267
-200.307 -20.3896 705.265
-498.595 -467.499 705.262
-409.84 -180.363 705.257
-177.698 -33.3793 705.255
-136.543 -980.357 705.247
427.319 -204.784 705.243
-423.304 -199.094 705.242
86.6401 -1011.99 705.242
-431.932 -248.708 705.234
-519.214 -512.096 705.234
215.09 -49.0139 705.233
445.413 -766.928 705.229
203.805 -977.68 705.228
-455.823 -251.257 705.224
-407.61 -821.744 705.21
-165.992 -971.314 705.208
499.028 -515.914 705.204
-517.848 -546.293 705.18
-208.165 -976.492 705.177
368.049 -866.519 705.173
519.533 -478.676 705.161
-66.7568 14.9949 705.16
-513.304 -578.575 705.159
231.868 -964.879 705.156
440.763 -265.138 705.151
-458.841 -743.366 705.148
-461.26 -738.555 705.145
392.823 -840.39 705.138
327.055 -95.777 705.128
-185.157 -14.5923 705.127
181.559 -986.721 705.126
-497.13 -546.713 705.125
133.779 2.30029 705.118
443.227 -269.495 705.115
127.532 -982.768 705.109
-355.016 -879.333 705.109
407.942 -212.115 705.107
-392.205 -191.009 705.104
380.85 -823.117 705.093
-216.313 -27.9111 705.089
169.333 -8.93878 705.088
432.913 -787.511 705.073
386.727 -153.479 705.066
408.534 -820.593 705.065
233.27 -964.126 705.065
-387.807 -185.538 705.058
-427.352 -795.448 705.053
-114.529 -1006.73 705.05
-174.944 -988.975 705.045
-98.0302 -1010.42 705.045
498.937 -519.29 705.029
173.345 -10.2069 705.024
393.042 -807.95 705.019
-389.242 -844.509 705.017
102.129 -989.085 705.016
-168.698 -8.90323 705.012
518.001 -462.289 705.011
-514.705 -569.069 705.008
143.586 -999.016 704.993
-509.48 -399.012 704.993
383.408 -819.936 704.982
-384.147 -150.198 704.977
449.775 -759.746 704.965
420.756 -195.7 704.955
-444.602 -728.072 704.946
-141.987 -978.684 704.929
468.34 -724.291 704.925
-473.714 -713.787 704.925
-139.696 -979.388 704.906
496.863 -450.082 704.899
-458.514 -256.273 704.898
448.227 -762.295 704.892
-141.518 0.265166 704.889
399.896 -168.131 704.888
-204.059 -955.731 704.881
510.661 -405.482 704.867
519.246 -475.607 704.865
74.2076 -5.85522 704.862
172.615 -990.356 704.814
-518.453 -531.121 704.809
-461.869 -737.344 704.805
138.527 -1000.47 704.799
422.87 -765.468 704.795
516.781 -551.757 704.773
-154.152 -3.87521 704.772
126.088 4.27258 704.748
-515.912 -560.881 704.706
-208.418 -976.397 704.697
-512.501 -584.01 704.683
-226.966 -32.9173 704.672
-371.772 -862.577 704.651
-88.2854 -1011.86 704.65
85.7498 12.436 704.644
-101.275 -1009.94 704.64
98.8206 -1009.86 704.638
149.358 -23.5794 704.627
-497.736 -454.805 704.614
-51.8187 -3.16609 704.613
-246.238 -42.0423 704.602
-58.2532 -1016.29 704.59
112.856 -13.2716 704.589
-392.691 -191.614 704.567
-239.401 -960.834 704.557
-517.883 -461.92 704.555
-374.593 -859.755 704.551
497.925 -463.122 704.533
-154.224 -24.7569 704.526
-509.874 -401.266 704.522
103.331 -1009.07 704.501
-517.685 -458.95 704.495
201.877 -43.3318 704.494
507.457 -389.646 704.489
185.132 -985.269 704.488
513.921 -575.518 704.478
-440.286 -775.376 704.469
86.8289 -1011.96 704.462
499.052 -514.982 704.456
400.57 -201.855 704.447
402.953 -205.172 704.442
-413.515 -219.897 704.44
-158.96 -973.472 704.429
-517.958 -463.043 704.403
-426.276 -797.116 704.394
140.235 -979.607 704.385
375.743 -858.405 704.367
519.575 -480.043 704.36
-519.298 -509.913 704.357
-374.624 -830.079 704.353
387.24 -846.278 704.328
131.314 -18.0398 704.32
-430.133 -791.131 704.317
-168.364 -991.447 704.309
516.621 -447.515 704.308
-241.095 -959.982 704.304
-455.658 -749.695 704.301
66.6986 -1015.48 704.294
-293.21 -70.5504 704.294
-395.88 -836.281 704.289
174.892 -967.65 704.281
-382.443 -821.363 704.277
165.3 -28.475 704.268
383.915 -849.785 704.262
516.277 -555.949 704.255
-55.3123 -1016.72 704.252
-224.164 -31.6004 704.25
77.6268 14.0799 704.237
-255.736 -952.621 704.231
-510.213 -403.204 704.214
-423.428 -235.406 704.204
-140.558 0.486299 704.203
170.452 -9.29239 704.202
164.358 -971.52 704.202
-381.299 -177.443 704.199
177.955 -988.186 704.186
377.93 -173.606 704.182
-142.102 -999.599 704.176
-204.743 -22.4744 704.175
-112.665 -1007.21 704.171
213.516 -973.733 704.168
-144.908 -0.680237 704.168
-146.902 -1.36942 704.167
512.706 -415.583 704.166
479.796 -699.912 704.161
117.511 -1006.5 704.157
375.246 -170.615 704.154
-497.535 -541.697 704.145
517.847 -542.902 704.144
389.398 -844.002 704.144
512.377 -413.959 704.131
-366.048 -839.638 704.126
364.793 -869.954 704.118
435.343 -215.89 704.116
112.694 -986.456 704.113
518.897 -530.944 704.111
499.316 -480.222 704.111
-514.172 -425.854 704.109
-429.232 -207.777 704.105
-517.845 -546.247 704.098
-406.898 -822.626 704.097
443.611 -229.711 704.097
-418.467 -808.288 704.085
519.455 -489.044 704.07
-51.6984 16.8036 704.069
-518.47 -470.733 704.068
408.463 -212.844 704.065
-411.63 -216.949 704.063
-381.425 -147.003 704.059
426.789 -240.426 704.049
414.533 -187.086 704.046
365.096 -159.301 704.043
385.029 -181.52 704.04
411.981 -782.501 704.031
392.958 -808.051 704.028
111.102 -12.9362 704.027
499.173 -510.494 704.022
-252.487 -954.254 704.01
426.386 -239.713 704.009
-97.2722 -1010.53 704.008
-84.1741 -1012.47 703.995
125.835 -16.3579 703.993
137.969 0.975998 703.992
-376.393 -857.956 703.985
513.397 -579.868 703.984
-409.964 -214.344 703.982
-196.338 -18.5246 703.972
-428.742 -243.72 703.969
-118.432 -14.9712 703.962
432.206 -211.548 703.95
401.76 -203.513 703.946
-514.569 -428.123 703.935
184.824 -964 703.934
-181.256 -13.2439 703.932
-464.933 -268.233 703.929
-442.57 -227.313 703.921
-123.928 -16.3381 703.919
-121.65 -1004.88 703.915
136.743 -980.475 703.911
512.245 -589.396 703.908
235.59 -36.5609 703.904
188.661 -37.6477 703.901
452.782 -245.76 703.901
-220.946 -970.114 703.9
410.925 -182.092 703.896
-358.727 -124.563 703.896
265.885 -946.623 703.896
193.016 -39.5211 703.89
109.765 -987.184 703.882
-518.536 -471.731 703.877
466.888 -727.38 703.875
498.729 -526.866 703.875
-168.086 -970.669 703.872
-461.236 -261.344 703.869
-135.218 -19.146 703.867
-232.807 -964.15 703.866
427.976 -205.694 703.86
149.519 -997.313 703.858
-451.865 -757.238 703.858
217.757 -972.009 703.849
208.937 -24.6266 703.846
216.84 -49.7695 703.844
-213.707 -26.6866 703.844
-230.374 -34.5186 703.834
468.965 -722.96 703.832
-61.3085 -1015.84 703.83
189.74 -16.2222 703.83
-419.94 -229.951 703.83
-124.585 -984.025 703.826
-470.312 -278.257 703.825
-238.373 -961.351 703.824
-420.554 -805.701 703.821
518.217 -539.834 703.818
-417.18 -225.632 703.815
497.875 -544.123 703.813
180.456 -12.4549 703.808
-519.118 -514.358 703.805
-182.096 -986.287 703.802
144.668 -998.706 703.796
-155.943 -25.3897 703.787
-212.532 -974.345 703.786
178.709 -966.246 703.783
429.809 -245.767 703.782
98.2714 -1009.96 703.782
187.199 -37.019 703.779
-193.584 -960.234 703.776
181.621 -12.8232 703.773
-518.544 -528.718 703.771
-139.749 -1000.21 703.766
399.209 -199.962 703.764
-399.568 -168.303 703.761
192.862 -961.047 703.761
518.955 -526.589 703.757
497.54 -458.423 703.755
395.83 -837.183 703.739
-246.919 -957.054 703.738
227.753 -967.087 703.733
134.007 2.22844 703.733
-219.22 -51.4186 703.732
417.501 -808.854 703.728
381.863 -821.854 703.726
519.444 -477.728 703.725
-35.1598 18.7932 703.718
187.628 -962.97 703.717
-422.053 -197.262 703.701
-388.432 -155.23 703.699
-394.896 -837.501 703.698
-509.828 -602.12 703.697
-519.941 -492.872 703.692
-181.994 -13.4991 703.69
184.975 -14.1359 703.69
376.138 -171.611 703.688
79.267 13.748 703.679
-452.849 -245.717 703.672
412.087 -183.701 703.663
-519.644 -488.355 703.647
-399.224 -800.017 703.646
-178.821 -966.585 703.639
190.609 -983.043 703.632
134.333 -18.9679 703.632
-390.727 -189.174 703.625
-513.66 -576.138 703.624
-167.725 -8.56683 703.623
-495.958 -656.173 703.621
498.471 -469.85 703.62
127.684 -1003.58 703.62
-513.068 -419.531 703.613
-136.956 1.3157 703.612
410.457 -215.621 703.607
215.36 -972.983 703.596
-515.292 -565.069 703.596
518.809 -470.927 703.595
-403.271 -172.651 703.594
-411.823 -182.691 703.593
-425.091 -798.955 703.592
420.958 -804.328 703.591
184.176 -985.657 703.59
-190.988 -961.351 703.587
434.34 -785.16 703.585
-73.0251 14.2344 703.582
154.393 -25.1275 703.581
123.611 4.77396 703.58
169.794 -991.466 703.579
451.533 -243.574 703.578
-354.313 -120.378 703.573
-516.652 -443.473 703.566
-428.574 -793.55 703.566
-514.359 -571.398 703.563
-386.319 -817.041 703.562
-174.392 -10.8713 703.562
508.194 -393.288 703.561
214.263 -26.9585 703.558
-393.677 -192.845 703.558
512.768 -585.093 703.556
-497.943 -536.674 703.554
232.283 -964.656 703.553
-346.726 -113.185 703.553
506.241 -383.641 703.55
-510.092 -600.325 703.55
518.593 -468.621 703.55
-36.726 18.6041 703.548
-197.967 -19.2902 703.546
-463.433 -265.439 703.543
-428.596 -756.377 703.542
-496.705 -551.87 703.541
-129.573 -17.7427 703.541
-337.809 -104.73 703.533
424.824 -236.953 703.529
191.399 -16.9484 703.519
-519.257 -482.545 703.519
416.583 -224.15 703.515
127.735 -16.9423 703.512
-519.63 -501.522 703.511
404.867 -825.395 703.511
139.274 -20.4854 703.508
-181.303 -965.517 703.502
171.629 -990.757 703.501
519.339 -497.764 703.496
-470.469 -720.241 703.496
184.355 -35.7963 703.492
-112.118 7.03436 703.488
-379.334 -824.826 703.474
121.908 -1005.24 703.474
-357.957 -876.392 703.472
-63.9209 -1015.45 703.471
397.869 -834.557 703.465
187.721 -984.216 703.462
505.246 -378.721 703.46
-186.778 -963.162 703.459
423.89 -800.489 703.459
-456.927 -747.17 703.457
-97.0361 -989.762 703.457
454.823 -249.333 703.455
-405.759 -824.038 703.452
439.332 -222.223 703.45
517.432 -546.349 703.447
-409.315 -179.746 703.446
-340.469 -107.252 703.446
-91.364 11.8129 703.445
92.0294 11.1652 703.44
-422.173 -803.485 703.439
-102.378 -1009.78 703.438
498.331 -468.142 703.434
-98.2862 10.2191 703.433
-191.746 -982.662 703.432
-238.356 -38.2694 703.424
-464.97 -731.177 703.418
510.091 -402.661 703.417
440.654 -224.537 703.417
392.222 -841.023 703.417
-466.594 -727.947 703.417
400.873 -798.203 703.411
422.962 -801.704 703.41
-498.934 -480.358 703.408
97.7123 -10.3681 703.405
464.448 -266.221 703.403
516.228 -443.315 703.399
-398.749 -832.726 703.397
-468.587 -723.984 703.395
-166.187 -29.1538 703.388
368.176 -132.86 703.386
-512.491 -416.232 703.385
-345.443 -111.968 703.383
89.7884 -8.84766 703.38
161.175 -993.967 703.377
379.017 -825.393 703.373
175.967 -988.994 703.372
154.92 -995.763 703.372
496.12 -440.992 703.372
444.679 -231.581 703.371
-177.918 -12.09 703.369
231.994 -34.721 703.369
425.336 -798.596 703.368
-378.621 -174.115 703.366
75.0541 -1014.02 703.365
-112.225 -13.4287 703.364
400.462 -831.161 703.363
519.484 -486.859 703.363
202.639 -978.154 703.36
514.887 -567.492 703.358
-427.855 -242.336 703.358
351.439 -854.64 703.357
-422.036 -233.231 703.356
158.757 -5.59535 703.356
-165.518 -7.80405 703.354
257.066 -951.356 703.351
402.807 -828.092 703.35
517.167 -548.554 703.35
418.148 -772.851 703.349
-171.623 -990.223 703.349
105.37 -988.276 703.348
176.035 -11.0573 703.343
504.044 -372.781 703.343
-392.891 -839.986 703.34
514.188 -573.302 703.34
-495.692 -439.831 703.337
428.597 -756.504 703.336
211.955 -974.367 703.332
209.94 -46.8022 703.332
-439.003 -222.089 703.332
519.161 -474.702 703.331
-412.522 -815.656 703.33
-518.928 -477.613 703.329
455.467 -750.374 703.328
391.613 -841.666 703.326
-112.046 -986.881 703.326
269.046 -944.904 703.324
-88.2861 12.3963 703.323
390.45 -157.621 703.323
-433.817 -785.415 703.322
-176.852 -967.431 703.318
-117.937 5.69464 703.317
421.438 -767.705 703.317
163.408 -7.06575 703.316
-89.941 -1011.62 703.316
155.705 -4.63081 703.316
498.843 -522.635 703.314
445.989 -233.872 703.308
-351.311 -117.532 703.308
-496.473 -554.711 703.307
-442.481 -731.817 703.305
431.472 -789.883 703.305
-390.33 -843.161 703.304
-148.376 -976.72 703.303
-145.543 -977.589 703.302
-451.185 -242.614 703.293
519.133 -513.193 703.293
381.64 -852.185 703.293
-225.4 -54.4848 703.292
139.812 0.393325 703.292
259.434 -950.085 703.291
-69.3233 14.679 703.289
-499.152 -488.429 703.289
-402.655 -827.885 703.288
-217.876 -28.6456 703.287
475.863 -708.281 703.287
-103.023 9.1286 703.286
-349.659 -115.965 703.285
-184.665 -985.322 703.285
-459.78 -258.631 703.283
519.214 -507.1 703.283
-227.113 -967.013 703.283
-76.116 -993.776 703.281
437.383 -218.836 703.28
-82.6138 13.079 703.28
161.135 -27.198 703.278
-117.492 -1005.96 703.274
142.766 -0.540406 703.274
166.127 -970.868 703.271
496.619 -447.113 703.271
515.658 -561.09 703.271
404.891 -173.764 703.27
-220.195 -29.7353 703.269
-446.88 -234.593 703.269
-499.575 -504.039 703.266
429.229 -244.745 703.264
-57.5628 16.0946 703.264
229.497 -33.6278 703.264
492.334 -584.783 703.263
221.301 -970.543 703.257
-105.708 -1009.01 703.255
407.239 -822.289 703.248
-244.7 -41.2505 703.247
-467.074 -272.223 703.247
-453.76 -753.471 703.246
-165.531 -992.512 703.245
393.152 -160.627 703.245
-249.665 -955.673 703.243
-513.598 -422.565 703.242
-517.303 -453.236 703.241
-512.756 -417.745 703.24
-511.958 -587.668 703.24
-432.66 -212.798 703.237
151.576 -996.722 703.236
369.147 -865.362 703.232
-234.809 -36.6028 703.229
65.8986 -1015.62 703.228
-387.044 -153.6 703.227
-43.3242 17.8086 703.227
88.3239 11.9151 703.226
-511.977 -413.292 703.226
380.749 -176.751 703.224
497.404 -547.573 703.223
397.152 -165.078 703.214
-138.492 -19.9613 703.213
-518.904 -519.679 703.211
-153.549 -975.131 703.211
-149.512 -976.371 703.205
-402.184 -795.894 703.205
-469.272 -276.319 703.204
-208.316 -24.1534 703.203
465.921 -729.439 703.203
-76.694 -1013.57 703.203
-376.731 -141.639 703.203
117.324 -985.303 703.202
-370.106 -864.243 703.201
433.144 -212.847 703.201
-70.0652 -1014.55 703.197
209.217 -975.48 703.193
