ply
format ascii 1.0
comment Created by Open3D
element vertex 1944
property double x
property double y
property double z
end_header
466.167 -179.995 447.502
460.108 194.461 670.322
-416.782 -275.792 726.877
-492.251 -84.5656 744.8
-452.48 212.121 514.076
-51.9489 497.166 684.844
-138.653 -480.052 615.53
-497.214 -49.6972 456.877
40.7244 -497.884 552.943
-405.077 292.994 761.924
-405.566 291.719 572.78
414.165 279.579 680.912
-188.026 462.797 489.741
-413.683 280.103 718.285
-253.601 -430.25 756.364
432.495 -250.549 754.289
-171.646 469.358 531.605
-361.849 344.529 480.824
-43.1146 497.484 427.177
-378.286 326.5 729.301
377.959 326.815 630.437
375.917 329.364 442.458
481.55 -132.741 753.852
481.072 -135.214 565.351
-496.467 56.3505 474.193
-497.419 48.4526 642.165
457.166 201.176 697.077
459.094 197.415 541.885
37.6683 -498.017 489.531
413.122 281.239 558.595
-222.139 447.556 590.07
298.51 400.394 757.338
-496.033 60.3203 598.693
213.718 451.516 504.582
-473.778 158.165 436.555
-475.053 155.229 631.354
474.199 -157.33 522.409
473.164 -160.324 712.448
-172.672 469.115 462.942
-226.558 -445.493 673.294
-42.729 497.744 508.734
377.942 326.511 748.222
376.124 329.074 552.773
481.168 -135.2 627.885
-496.5 57.5004 543.07
-497.348 48.3957 766.525
-399.34 -300.299 654.938
37.8369 -497.964 468.38
413.733 280.356 579.119
-246.847 434.196 504.044
278.928 414.649 673.66
-422.335 266.712 675.854
-495.364 65.204 600.879
-493.011 -126.043 400
-495.982 74.4095 400
-340.202 -365.815 685.015
-467.217 176.64 688.559
456.664 202.891 578.943
-383.491 320.154 684.943
-175.9 467.513 675.964
-477.016 -149.455 415.189
70.4905 -494.76 538.157
-490.991 93.0191 648.784
-487.392 -110.738 648.677
-487.345 -109.5 454.143
-449.029 219.226 576.058
184.396 -464.47 545.69
-499.147 20.3848 663.954
-126.62 483.136 720.017
-51.7195 497.167 694.648
-138.969 -479.984 600.502
-496.5 -55.0551 465.653
-496.953 -51.8444 661.18
467.041 -176.961 718.005
41.6349 -498.04 400.537
-404.788 292.899 603.695
-406.059 290.519 409.098
-492.688 -82.9105 681.083
-491.713 -89.8309 491.841
-415.005 -300.799 400
352.551 -354.4 459.841
-423.939 287.227 400
-432.062 250.553 485.997
-412.35 282.306 582.858
326.556 378.09 406.519
325.268 379.436 594.591
-416.587 -275.567 483.846
-418.446 -273.304 673.19
-493.702 -76.4835 531.506
-493.443 -78.5268 726.877
-265.862 423.327 448.131
-7.21429 499.592 730.046
-495.742 -62.7816 625.326
-494.868 -66.6325 436.365
466.612 -179.074 471.732
460.253 194.234 646.914
459.814 196.068 471.587
-265.729 423.308 403.203
-6.95724 499.641 721.146
-495.069 -65.1061 432.616
-495.634 -63.6177 628.523
460.462 193.765 643.289
465.737 -181.123 474.813
-173.966 468.294 639.698
-489.666 -98.7699 669.735
-489.082 -102.718 481.151
-491.696 89.5526 670.247
80.1292 493.261 528.583
-243.213 -436.114 760.513
-364.11 347.536 400
-493.04 -81.1824 519.526
-492.322 -84.5498 708.386
-320.685 382.86 771.669
-358.358 -347.852 454.165
-256.405 428.836 525.076
-258.93 -432.068 400
260.58 426.279 535.526
-480.532 -136.657 422.852
-485.85 -117.063 658.274
-486.105 -114.597 468.708
-490.291 94.9261 470.246
-498.898 29.6037 663.808
-498.389 32.6108 468.112
-499.643 8.13538 574.265
-499.376 5.2319 763.181
329.918 375.321 570.977
-440.868 235.292 670.316
-441.651 233.553 475.224
-379.674 324.721 503.064
-513.165 -8.61798 400
-117.917 485.221 762.179
-492.898 -81.4007 459.18
-492.583 -83.7692 649.033
-424.098 263.751 735.332
83.5869 508.468 400
-492.675 -83.9097 585.071
-242.614 436.503 463.127
32.559 498.473 726.67
480.465 -137.022 764.454
-488.132 106.079 459.957
2.23755 -499.666 649.262
365.749 -340.54 715.199
-497.458 -47.759 567.362
-171.092 469.373 628.303
-227.314 -445.112 670.005
-42.7543 497.781 522.78
377.555 327.001 727.009
376.605 328.58 537.373
481.099 -135.254 661.549
-497.386 48.4903 738.808
-496.552 56.8882 571.072
-400.046 -299.328 651.367
412.538 281.926 654.541
-492.743 -83.7277 567.317
337.73 -368.523 715.004
-487.752 -109.034 614.2
-359.862 346.646 631.117
-482.132 -130.525 462.644
-240.826 437.45 433.147
-492.434 83.4111 434.257
-488.597 -104.303 433.164
80.3465 493.296 589.25
22.9541 499.15 764.05
255.22 429.677 522.391
-483.532 -126.402 660.924
-482.647 -128.521 471.33
277.585 415.59 618.451
279.503 413.954 430.158
-419.639 271.695 451.05
-420.504 269.701 639.302
-495.017 65.5047 766.234
457.276 201.355 603.45
459.173 197.692 442.62
-434.971 -245.899 582.501
-223.049 446.849 714.595
357.399 -349.417 512.224
170.196 470.051 763.008
-496.611 54.4462 718.847
-495.988 61.598 529.06
-399.756 -299.513 721.109
412.588 281.769 682.698
-322.642 -381.481 510.956
458.369 198.313 711.597
79.8152 493.081 423.831
-246.644 434.224 463.112
294.329 403.893 537.953
-482.65 -129.392 587.668
279.425 414.362 594.658
-495.216 65.2424 677.959
-340.327 -365.984 570.717
-467.341 177.043 548.952
214.974 470.639 400
-417.222 -275.081 632.855
-493.298 -78.6001 469.012
418.457 273.234 657.704
461.349 -191.909 601.242
-493.112 -80.4894 507.711
-492.317 -84.6971 696.285
72.0944 -494.652 459.449
-491.328 90.4822 568.622
-487.724 -108.846 568.712
-487.025 -111.637 761.8
-162.618 -472.571 679.164
-118.084 485.269 714.725
-468.005 -174.906 588.774
-181.769 465.522 591.378
220.438 448.429 624.491
-339.267 -366.823 615.992
61.1973 -495.997 433.288
-467.431 176.852 403.318
-421.096 268.859 614.635
-495.218 65.6604 645.991
2.95996 -499.736 512.436
-494.086 -73.4195 513.641
-491.796 -87.4427 693.086
-247.062 433.914 428.104
25.7015 -498.886 728.052
385.383 318.025 592.201
386.968 315.497 401.657
-168.973 470.293 555.966
-477.821 -147.121 420.704
-478.539 -143.576 616.423
-139.227 -480.003 549.081
-497.175 -49.5599 426.138
466.869 -177.732 660.996
214.309 -451.508 556.275
-351.184 374.343 400
-51.5176 497.125 543.573
-488.561 -104.908 493.554
-492.683 82.6891 493.556
-235.062 -441.017 546.767
333.456 371.815 706.168
430.922 -252.707 523.167
429.605 -255.195 717.997
337.682 -368.483 763.094
-491.424 90.8654 659.823
-487.734 -108.919 661.165
-359.801 346.585 677.982
18.7782 499.354 714.728
-48.8532 497.495 660.55
-263.781 424.048 749.568
-491.045 -92.0395 622.784
375.981 328.798 711.225
58.9918 496.316 549.264
-187.914 462.897 515.949
-239.093 438.376 407.625
-18.689 -499.485 697.121
-139.509 479.897 640.527
-394.396 306.792 615.337
149.149 -476.967 655.809
215.71 450.516 498.641
240.167 437.925 718.297
-517.276 -40.7789 400
-410.352 285.009 557.83
94.7938 -490.427 529.336
499.603 5.55536 462.909
-173.931 468.224 682.676
-491.487 91.4471 763.898
-488.799 -102.383 762.791
-470.5 -167.663 503.972
-471.755 -165.147 700.252
-393.471 308.197 528.417
-496.232 59.8313 525.879
-495.636 61.6505 715.35
214.363 451.345 577.073
-163.219 -472.354 696.754
-117.845 485.385 684.789
-468.205 -174.33 582.977
-27.7344 498.683 562.202
190.547 482.376 400.065
-181.022 465.758 611.002
221.266 447.956 593.974
2.49223 -499.687 492.58
-494.318 -71.308 483.411
-491.885 -87.1496 675.311
34.8352 498.344 532.168
277.754 415.295 760.899
26.1309 -498.841 746.075
385.347 318.296 669.276
387.465 315.106 479.702
200.422 -457.77 642.732
-51.8724 496.804 438.895
-481.229 -134.843 552.925
-497.34 45.812 482.274
-36.7415 498.223 507.893
418.76 -300.172 400
382.995 -320.926 468.834
9.9787 499.21 406.312
-476.618 149.658 555.768
-149.693 -476.432 735.936
-166.428 471.255 541.952
-488.406 -105.594 501.906
-487.79 -108.511 673.444
-359.938 346.353 714.744
71.7068 -494.694 483.947
337.361 -368.805 693.971
-486.988 -112.06 738.291
-491.28 92.385 738.818
-487.753 -108.535 543.156
-482.309 -130.416 541.871
-493.358 -78.0802 463.194
-493.044 -81.0832 514.367
-492.403 -84.179 703.067
-452.969 211.186 557.115
-50.7597 497.291 625.62
-293.475 -404.734 436.836
-497.245 -49.9391 491.896
-497.438 -45.4194 682.078
-18.3632 499.405 700.6
101.858 489.015 700.677
459.767 196.034 502.594
459.746 195.109 712.051
-488.881 -102.53 703.4
458.475 -198.645 612.82
-187.82 462.832 463.127
-413.664 280.203 697.374
-310.171 -411.378 400
-13.51 499.303 754.583
-137.965 479.966 429.13
-394.697 306.081 729.898
-466.151 179.293 735.357
-171.518 469.444 511.724
-362.062 344.451 539.367
-479.739 139.394 539.49
-226.954 -445.372 721.289
-43.8324 497.516 459.488
-378.59 326.18 709.319
376.127 328.94 600.086
480.995 -135.547 578.877
-496.552 56.6063 591.953
-322.402 -381.801 565.018
458.805 197.101 754.505
-488.69 -103.009 756.782
457.275 -201.613 651.525
-175.219 468.115 496.291
-496.379 56.0979 723.06
-496.771 53.8598 528.945
-323.086 -381.051 479.786
458.432 198.47 646.099
-399.888 -299.421 692.007
413.044 281.042 712.005
411.659 283.389 516.533
-246.691 434.156 443.746
291.868 405.835 460.809
-495.518 64.5586 565.304
-494.53 69.2416 754.217
-339.394 -366.867 552.059
311.097 -390.609 753.95
-467.276 177.311 531.857
457.81 200.764 450.56
295.68 402.603 679.524
-488.796 -102.806 720.673
457.671 -200.754 664.631
-496.439 58.0092 532.556
214.829 451.124 581.803
-493.105 -80.6774 517.862
-492.279 -84.7473 711.483
-495.428 63.0103 727.667
-496.253 59.5441 537.371
-474.933 155.089 546.855
-475.816 152.935 744.803
-483.414 125.147 766.864
-484.279 123.108 577.216
473.608 -159.053 724.672
-12.7565 -499.782 769.422
-121.577 484.641 587.208
67.9368 494.881 481.176
-504.733 39.9008 400
-78.7326 -493.385 525.761
-497.93 38.5478 481.596
-498.571 35.0618 675.429
-491.247 -92.045 514.134
457.088 -201.881 615.61
-452.302 212.498 505.729
-496.078 60.2469 579.825
-495.441 62.3495 769.389
149.178 -476.702 522.698
214.295 451.094 437.952
-491.622 -87.5947 770.723
-494.209 -73.4181 579.579
460.006 -194.5 486.972
93.3097 -490.784 567.888
-485.703 118.302 414.909
-485.93 116.223 609.581
191.22 461.543 650.195
-307.883 393.623 570.779
-389.035 313.153 720.777
-391.524 310.797 467.565
324.495 -379.983 546.337
34.6 498.436 502.243
-483.806 -124.003 490.059
-484.834 -121.298 678.032
380.527 323.824 677.103
26.8167 -498.946 678.858
386.837 315.807 451.982
386.2 317.149 639.697
-487.689 -109.19 657.435
-359.826 346.627 652.412
-498.191 35.4514 486.452
-498.767 32.5086 674.551
-424.699 262.951 694.069
-492.873 -81.4057 446.007
-492.333 -85.1681 639.304
-457.752 -199.688 724.079
-486.651 113.532 582.549
-491.725 -87.1013 766.189
-494.292 -72.8909 586.033
459.843 -194.79 467.826
-311.213 390.695 677.495
-457.607 -199.857 760.394
-486.363 113.315 763.123
-486.007 116.135 580.383
191.241 461.548 643.155
28.6256 498.835 433.384
-489.826 98.514 589.522
-485.712 -117.093 589.201
-498.122 36.4552 492.947
-498.77 32.2563 694.063
-491.226 -90.8188 651.008
375.766 329.25 633.896
59.0047 496.222 520.199
458.962 -196.589 414.048
-415.196 277.779 705.819
-420.017 270.172 724.834
-494.527 72.7584 460.494
456.673 202.121 740.467
457.652 200.754 544.776
79.3531 493.34 697.538
-482.688 -129.177 579.398
-80.9097 -493.013 712.265
-495.126 68.1353 513.355
70.8176 -494.849 465.816
-487.772 -108.322 525.001
-491.196 92.65 720.757
-487.204 -111.102 720.598
-360.644 345.963 592.929
-80.3022 -493.035 452.284
-498.067 38.9565 574.125
-498.553 35.5774 763.346
-499.691 10.4345 514.315
451.457 214.411 643.417
-488.921 -102.011 735.869
457.13 -202.081 679.494
71.2112 -494.612 565.156
-491.31 91.5081 664.509
-487.605 -108.613 475.204
-487.125 -111.97 663.052
-38.0177 498.373 750.798
-484.942 119.918 646.602
11.3279 -499.778 411.847
-488.276 -105.282 745.087
463.919 185.945 591.724
513.526 52.6762 400
480.979 134.697 765.782
482.099 131.315 549.306
-480.112 -137.795 721.9
-223.281 447.31 406.051
-497.306 48.0996 565.097
70.3453 -494.943 435.517
-487.58 -108.882 497.235
-491.185 90.5196 495.96
-487.172 -111.561 690.958
-263.844 424.394 572
-264.704 423.422 766.286
343.996 362.448 669.777
484.136 124.412 766.467
-496.479 -57.6622 650.11
-495.784 -60.2244 459.266
-263.783 424.506 538.246
-265.35 423.094 727.018
345.322 361.178 702.568
-495.892 -62.8463 711.11
-495.029 -66.5528 517.34
459.912 240.219 400.299
275.42 -417.069 537.65
448.263 -221.109 493.977
335.014 -370.583 561.424
-491.113 -93.3215 454.428
-493.279 79.5684 670.22
430.742 -252.754 450.305
429.716 -255.264 646.636
-279.776 413.924 475.07
-477.326 -147.094 685.578
-476.994 -149.321 502.576
321.717 382.126 469.025
-488.743 -102.608 769.558
457.751 -200.787 712.134
-471.03 -165.958 454.212
-393.06 308.822 486.614
-496.33 58.2515 483.598
148.973 -476.581 426.583
214.299 451.293 536.103
-452.132 212.449 409.986
155.819 474.666 408.865
-174.826 468.125 564.887
-490.883 -93.0244 608.477
-490.706 -95.6456 411.434
-0.327576 499.678 445.464
54.1258 -496.834 621.968
-295.76 402.738 605.789
-294.272 403.395 423.171
-492.633 83.1735 516.839
-488.543 -105.154 516.281
332.783 372.36 729.975
430.676 -253.052 498.724
-13.7609 499.242 765.804
-496.523 56.3235 628.548
-496.663 53.0221 433.163
-322.336 -381.885 578.092
459.11 196.445 743.047
37.9223 -498.068 528.972
413.037 281.352 616.433
385.505 317.96 621.729
254.977 429.643 435.469
380.638 323.516 744.783
-484.079 -123.563 576.636
279.124 414.385 516.967
-81.6034 -492.79 760.498
-494.885 67.9552 657.365
-495.6 65.2654 469.008
-339.432 -366.596 648.101
-467.273 176.814 626.977
255.317 429.67 547.951
-482.495 -130.053 592.406
-256.579 -428.546 765.973
435.376 -244.426 414.974
296.771 401.854 663.867
-424.064 263.68 771.896
-215.459 450.997 490.091
-51.9448 497.261 640.815
-294.09 -404.178 403.05
-497.368 -45.923 697.335
-497.279 -49.8326 502.092
-18.2967 499.399 696.984
100.994 489.211 684.9
459.621 196.414 493.862
460.235 193.933 720.438
-265.481 425.937 400
484.661 122.476 741.635
483.599 125.311 552.758
-293.828 -404.176 571.683
-495.248 -64.407 477.705
-490.27 -97.2003 507.409
-490.791 -92.5862 702.739
458.107 -198.538 405.537
-188.305 462.664 483.238
-413.655 280.172 710.85
-496.456 56.6294 480.574
-497.385 48.7459 636.645
457.626 199.913 738.869
459.068 197.677 498.38
39.1056 -497.89 484.154
413.216 281.119 565.819
-489.022 -102.886 591.353
450.193 -216.346 705.159
-268.816 420.801 762.961
-482.91 128.757 558.264
-485.077 120.221 535.064
336.602 -368.997 495.943
338.746 -367.546 690.612
-488.334 -106.518 586.982
464.106 185.36 558.991
462.813 187.812 748.317
427.479 -258.53 715.457
458.543 -198.642 646.3
-223.692 447.063 454.342
-479.854 -138.939 673.111
-499.101 -18.5995 484.689
-499.288 -21.063 622.827
-420.077 270.582 576.732
-480.215 137.716 519.186
-481.254 134.267 709.834
-339.887 365.844 412.074
469.601 169.847 454.605
-176.358 467.677 506.127
10.5756 -499.595 564.463
-490.829 -92.7477 665.867
-490.635 -95.6355 472.475
-499.895 -126.973 400
-514.021 37.8882 400
381.236 -322.925 696.886
-121.949 500.586 400
7.1059 -499.456 691.601
-489.044 101.908 519.58
-488.617 104.664 708.966
-498.029 41.1093 648.809
-497.465 43.6567 454.95
452.947 210.504 424.51
-117.198 485.429 746.794
-424.668 263.02 688.109
-264.998 423.671 565.18
483.965 125.093 720.619
-295.498 -403.041 400.451
-495.524 -62.7278 503.019
-492.854 -81.9477 691.08
-78.9423 -493.207 445.006
-498.491 34.3543 600.822
-497.787 38.7493 412.365
70.7389 -494.846 423.87
-487.48 -109.178 483.15
-487.328 -110.874 677.767
-491.089 92.7981 678.686
71.4748 -494.712 491.592
337.764 -368.453 698.037
-491.254 92.4962 735.922
-487.694 -108.797 546.44
-491.398 89.9051 546.784
-487.008 -111.979 735.634
-359.835 346.717 614.126
-488.974 -102.291 678.556
456.556 -202.308 441.029
458.777 -198.053 636.811
-332.05 -373.714 447.202
119.565 484.88 474.454
499.241 -20.903 725.876
-120.494 -485.114 720.283
-135.673 480.881 721.893
-196.64 -459.61 450.206
-499.408 11.1759 657.511
-499.698 13.6003 463.828
451.897 212.544 406.214
451.125 214.885 596.435
-188.34 462.497 406.95
-449.538 218.31 549.53
-450.986 214.605 739.515
-175.152 468.115 508.556
450.078 -216.686 678.89
-222.346 447.19 718.655
170.476 469.896 723.828
-496.747 53.6582 703.702
-295.323 -402.778 715.424
53.6495 514.819 400
-226.644 445.499 447.503
459.468 195.932 674.107
-170.674 469.842 466.876
-479.61 139.486 487.188
-360.583 353.776 400
203.26 -456.444 589.905
103.319 488.791 406.073
-225.728 -445.912 676.782
-43.0289 497.707 504.441
377.873 326.595 745.306
375.811 329.411 556.795
481.116 -135.431 629.63
-497.343 48.3925 769.113
-496.629 55.8554 540.554
-399.676 -299.82 658.936
38.159 -497.945 472.12
412.813 281.736 576.774
35.8492 498.514 444.586
-484.319 -121.399 418.932
380.612 323.444 415.307
380.546 323.791 681.484
-483.854 -123.849 495.316
-484.947 -120.9 685.422
278.742 414.775 676.995
-422.068 267.115 680.221
-495.257 66.1136 591.716
-339.714 -366.261 681.742
-467.336 176.334 684.979
-353.148 353.929 404.839
-516.382 -54.1913 400.22
-238.498 -439.186 484.478
-411.64 282.959 475.865
-488.742 -102.905 739.713
457.392 -201.536 693.728
124.196 -484.083 537.813
-111.75 486.957 654.809
-440.8 235.04 764.655
-441.894 233.474 571.969
-265 -423.805 696.95
-494.954 -69.4059 687.202
337.799 368.362 435.236
-499.65 13.9589 484.71
-499.368 11.6489 672.762
451.245 214.851 646.31
451.943 212.635 450.683
-423.886 263.952 773.984
-492.919 -81.8322 502.135
-492.375 -84.4344 691.729
-453.066 211.011 568.321
-418.204 -273.652 664.523
-493.857 -74.8239 492.971
-493.342 -79.4914 681.946
9.87201 499.859 765.628
-363.425 342.648 435.8
-162.398 -472.659 668.906
-117.833 485.336 712.134
220.631 448.329 622.244
1.74756 -499.697 508.778
-494.281 -71.9579 511.201
-491.903 -86.8485 696.674
-247.595 433.604 423.702
254.505 429.901 415.544
380.601 323.911 615.575
-483.867 -124.211 549.761
-485.246 -120.094 737.954
279.074 414.516 562.296
277.383 415.581 752.258
387.507 314.839 406.035
385.738 317.61 601.161
-487.68 -108.507 732.902
-489.394 -99.2074 770.502
-489.243 -101.817 582.814
-494.344 -74.0436 705.533
460.2 -194.298 540.74
-485.868 115.786 700.086
-209.178 453.899 631.334
-13.1094 499.302 756.916
-139.958 479.352 428.377
-394.541 306.265 733.221
47.006 498.407 400
-466 179.682 739.274
117.667 485.699 658.054
497.716 44.1375 649.099
497.672 46.8335 454.495
263.57 -424.193 744.636
480.242 -138.025 582.637
-475.278 154.302 600.334
-51.6402 497.279 646.67
-491.797 86.6843 429.685
-488.713 -104.232 618.587
-492.89 82.8214 618.169
430.891 -253.054 601.314
-371.354 333.922 476.211
340.372 -366 651.962
341.662 -364.362 456.811
-371.639 333.978 612.753
44.3518 498.365 582.376
227.069 -445.26 516.912
-256.61 428.721 708.377
-41.9759 -498.141 451.865
128.65 482.881 742.017
259.49 426.955 525.908
-481.618 -132.883 723.107
-480.225 -138.497 550.13
-279.91 413.842 481.241
-476.731 -149.091 676.144
321.68 382.139 461.769
20.5674 499.252 717.739
429.423 -255.604 681.488
265.431 443.824 400
-499.086 -15.2765 427.493
-491.121 -91.2729 660.915
58.5145 496.333 533.974
149.601 -476.832 658.196
215.726 450.49 489.703
-494.672 71.8415 445.229
-226.065 445.535 626.298
456.582 202.435 718.388
457.383 201.453 528.841
123.848 484.322 759.819
-508.689 -57.4972 400
73.174 -494.316 580.332
83.4368 -492.557 502.814
-43.5581 497.842 673.479
-81.329 -492.963 696.361
-495.071 68.6551 504.904
-495.971 59.696 678.4
-265.068 -423.743 688.536
-494.953 -68.3313 607.465
-70.4691 506.148 400
-98.4161 489.867 601.656
-175.051 467.965 604.419
445.984 224.456 403.548
11.1328 -499.409 657.856
-489.421 -99.2252 754.066
-491.803 89.2653 753.761
-489.154 -102.457 564.824
453.061 210.751 690.527
-170.964 469.371 653.47
-479.82 140.033 684.521
-455.997 -204.587 481.05
-464.402 184.253 480.707
-202.778 456.9 714.532
409.037 -287.335 729.346
-479.986 -138.173 726.934
-434.968 -246.426 442.154
-222.429 447.078 753.295
-465.67 181.595 547.031
298.239 400.975 586.082
-496.906 52.9927 666.859
-496.08 61.3414 484.449
-322.289 -381.783 726.609
459.344 195.946 733.133
-475.71 153.142 639.675
-474.576 155.709 459.845
32.1527 498.679 420.818
-174.857 467.92 663.878
-481.794 -132.567 681.594
-375.316 329.386 433.148
-480.461 -137.789 534.29
-497.371 49.4558 664.807
-497.175 47.6492 474.055
494.318 -72.518 699.739
-276.528 416.065 673.49
497.005 50.3733 732.788
497.153 52.5898 538.338
-109.243 487.54 676.251
-481.194 134.72 681.464
-480.489 136.616 485.856
-341.196 364.691 420.649
-280.224 413.634 489.242
-476.765 -150.014 510.642
-476.983 -148.118 700.779
-398.616 301.001 447.504
-393.542 307.94 585.736
-34.137 498.524 720.795
335.989 -369.699 557.686
-490.926 -94.2163 462.804
-493.167 80.5029 661.549
-235.116 -440.958 634.221
333.372 372.599 401.747
431.118 -252.147 465.82
430.339 -254.228 654.488
-480.046 -139.211 502.442
0.249329 499.731 459.74
53.6037 -496.845 654.799
-295.709 402.825 628.087
-497.097 51.2058 588.864
8.29028 -499.768 450.76
71.071 -494.252 769.606
-486.731 -111.83 436.048
-486.311 -114.96 625.431
-490.816 91.8558 435.673
-490.409 95.8181 625.139
390.272 -311.887 627.209
-434.854 -246.193 558.848
-223.086 446.879 691.127
357.14 -349.663 439.182
170.364 469.872 690.467
-76.0135 493.792 715.026
80.4119 493.142 468.614
278.017 415.36 642.744
-226.83 445.285 562.958
457.846 199.918 627.44
459.128 197.912 417.538
20.3943 499.164 661.258
-51.3532 -496.912 705.413
-353.992 352.524 628.134
-175.087 468.247 453.454
-491.52 88.9967 519.186
-490.051 -96.3737 709.858
-489.927 -98.8682 519.904
453.275 210.568 601.225
449.978 -217.562 432.853
448.873 -219.324 628.385
-480.833 -135.793 468.648
-490.471 95.2927 604.425
-486.101 -115.641 604.167
-486.792 -111.387 410.116
-490.65 92.4633 409.258
389.426 -312.699 709.139
-480.312 -141.308 400.104
-481.95 -132.306 600.592
-480.163 -138.607 565.154
-0.783203 499.946 686.062
52.7599 -496.766 477.594
-295.688 402.901 654.892
-294.959 403.014 473.236
-497.283 50.2032 645.675
-497.043 48.9033 457.481
-482.272 -129.648 421.337
363.016 343.512 576.46
-485.056 119.736 610.003
337.159 -368.786 613.326
-488.131 -106.388 708.989
463.917 185.582 675.613
426.575 -260.357 594.015
-491.324 -89.3702 747.442
-479.47 -141.243 504.624
-482.128 -131.439 688.28
-481.894 -132.566 607.035
-45.6072 497.844 741.667
-480.18 -149.614 400
-495.528 62.123 739.088
-496.205 59.7171 550.462
-471.015 -165.901 436.059
-34.6502 498.486 717.907
-393.071 308.481 601.147
-395.12 305.742 407.188
124.867 500.814 400
-424.755 -280.524 400
-432.533 254.804 400
-474.804 155.732 582.251
-476.091 152.125 756.371
118.945 -485.572 418.311
-484.349 122.924 564.61
-483.602 124.484 754.535
474.163 -157.743 570.103
473.304 -159.698 758.52
8.89445 -505.118 400
337.275 -368.865 687.555
-491.324 90.6685 585.967
-487.687 -109.13 586.5
-359.521 346.994 628.381
-356.607 -349.934 581.651
-255.773 429.063 463.237
-480.754 -135.867 695.828
-481.693 -132.595 502.43
28.9192 498.687 534.977
7.22076 -499.801 502.124
-490.733 92.834 491.688
-490.57 95.5848 687.345
-486.601 -114.266 687.607
-486.832 -111.854 492.734
71.7881 -494.634 418.492
-491.136 90.5866 476.669
-487.43 -110.403 671.789
-487.575 -108.755 478.113
-491.172 92.3082 673.124
-174.289 468.124 666.542
2.19645 -499.73 520.301
364.653 -341.703 689.654
366.437 -339.457 496.192
-494.153 -74.9152 717.82
-497.741 -45.8843 496.336
221.909 -447.673 588.562
421.048 268.806 547.825
137.497 -480.412 730.111
-280.665 413.234 759.6
-478.591 -144.491 426.751
-496.391 -57.2556 726.84
-495.716 -61.7796 537.006
-332.508 373.256 733.507
353.03 353.32 507.973
-494.681 71.155 531.984
458.677 198.234 574.474
457.069 201.111 759.902
420.647 -284.582 400
413.475 280.492 400
-482.56 -129.319 530.229
-483.331 -127.3 723.843
-465.563 181.353 437.585
298.822 400.551 478.34
-242.989 436.277 456.833
8.15201 -499.604 595.271
387.337 315.898 695.771
-496.678 53.8463 727.157
-495.748 63.1741 542.817
214.187 451.499 609.821
-481.773 -132.576 691.131
-256.572 428.726 717.555
-480.108 -138.445 433.697
422.348 266.872 577.231
341.191 371.95 400
-480.164 -138.62 486.404
0.302551 499.807 475.889
-479.71 -139.302 690.289
-279.666 414.119 526.397
-476.535 -149.943 642.284
-496.53 56.3795 620.635
38.2594 -497.876 439.188
413.049 281.35 610.116
-435.176 -246.139 420.353
-222.913 446.878 733.657
169.561 470.227 720.82
-496.889 53.3123 652.028
-495.908 62.6968 450.975
-76.1489 493.64 757.197
79.8899 493.382 607.029
254.619 429.698 744.775
-483.373 -126.541 594.919
278.427 414.988 588.999
134.522 481.224 507.8
213.803 468.533 400
-225.821 445.752 579.009
456.854 202.012 673.051
457.638 201.094 478.332
-175.342 468.076 492.856
-111.928 -486.712 438.816
-505.379 74.2809 400
-498.755 29.748 540.314
-499.02 26.8147 638.312
11.3946 -499.595 552.807
-491.01 -92.1441 630.771
-490.197 -97.8986 436.519
-460.927 192.137 438.597
-499.508 -15.3264 657.822
-499.231 -11.873 456.229
125.17 483.51 487.216
-211.389 452.859 603.954
-498.823 -24.5089 420.005
-499.02 -27.7178 603.634
-175.751 -467.989 754.27
221.268 -447.695 732.935
421.338 268.837 690.441
-85.1414 -492.324 424.017
-423.042 265.871 597.813
-424.855 263.012 408.638
-1.36932 499.607 424.912
-37.4742 -518.213 400.024
-483.052 127.863 601.062
-37.2827 498.131 549.374
-485.252 120.109 457.21
-488.374 -106.036 543.206
465.13 182.831 607.224
29.112 498.611 644.408
-462.582 188.245 429.42
481.99 131.458 757.078
482.699 128.997 561.513
-485.089 119.688 598.795
339.153 -367.003 766.819
-488.216 -106.057 697.477
464.428 184.559 640.005
426.642 -260.126 631.001
-462.81 188.433 584.073
498.549 36.0274 427.023
-345.782 360.712 475.884
481.215 134.226 717.993
482.095 130.967 501.357
-210.893 453.062 624.624
-498.88 -27.3835 696.365
124.961 483.532 471.397
-175.879 -467.895 715.733
220.112 -448.301 716.977
421.6 268.38 676.381
-42.1793 -497.636 717.838
-478.984 -142.502 556.602
-499.566 -0.800415 475.051
-499.792 -4.13971 657.955
-476.712 -150.492 461.912
-477.513 -146.689 652.929
324.057 380.162 433.515
71.2958 -494.384 681.8
-491.23 91.2977 600.015
-491.214 89.4971 406.573
-487.309 -109.282 406.581
-487.047 -111.812 600.724
-449.205 219.062 529.728
-494.389 -73.7478 711.588
-494.44 -70.9416 522.25
460.691 -193.035 514.352
460.105 -195.324 713.995
-457.948 -199.483 670.276
-485.621 116.649 717.409
-496.365 -57.4418 568.354
-495.457 -66.7513 763.353
167.448 470.927 681.977
-491.709 88.1193 530.198
-489.832 -99.2883 527.604
-489.922 -96.9051 724.368
448.386 -219.721 770.227
449.66 -217.935 580.432
383.973 -319.367 749.012
17.0239 499.357 547.594
8.461 -499.691 406.281
70.7956 -494.385 718.267
-490.441 95.3263 591.618
-486.541 -113.775 591.305
119.246 -484.939 736.529
473.5 -159.952 603.697
473.847 -157.807 415.381
-484.142 122.387 744.795
489.693 -99.5499 625.032
-37.8322 498.153 517.63
-150.092 -476.294 744.008
-165.925 471.412 556.066
-488.411 -105.643 510.73
-291.861 -405.172 756.554
454.745 -206.876 518.063
-52.8903 496.814 472.016
-26.7903 498.969 724.587
208.679 -454.134 633.4
-478.388 145.049 740.725
346.709 359.377 406.117
-480.952 -135.839 537.654
-497.407 44.5974 464.872
2.62718 499.418 408.167
-0.691793 -499.691 678.618
193.417 -460.814 658.38
100.709 489.549 463.546
-57.6791 496.185 748.276
-498.885 26.8036 712.125
-498.539 30.7247 465.99
336.205 -369.393 511.765
-491.297 -92.566 416.091
-493.204 80.8925 612.856
430.584 -252.917 418.544
-463.73 -186.349 603.834
-468.886 173.408 442.004
-392.303 309.76 490.527
-492.824 83.2261 630.465
-488.635 -104.515 631.413
-491.866 86.4511 442.595
-174.856 -467.937 544.505
461.671 191.553 510.891
-379.516 -324.888 700.223
-498.528 -81.9869 400
-0.821106 499.646 436.008
-481.068 134.211 402.602
-171.829 469.09 634.619
-479.547 139.542 463.439
-226.181 -445.637 651.802
-42.0077 497.86 529.5
376.712 328.346 579.365
378.358 325.993 768.006
480.837 -136.363 654.145
-496.74 55.0815 566.402
-497.389 48.3847 744.664
215.137 461.573 400
-399.45 -300.064 681.162
412.605 281.851 648.731
-52.4385 497.202 642.361
-409.935 -285.658 620.346
479.179 -141.395 568.22
32.7013 498.439 544.129
-348.777 -357.923 765.634
-513.711 -6.79785 400
-487.502 -109.394 736.649
-499.783 -6.42484 700.058
-499.56 -3.48392 511.34
-118.069 485.756 433.856
-246.546 434.412 525.896
380.394 323.894 705.778
-483.867 -123.986 519.969
-485.38 -119.336 708.908
279.461 414.313 652.894
-421.559 267.838 701.727
-495.255 65.7924 616.163
456.596 203.121 563.631
-383.551 320.018 706.173
-175.161 468.167 480.123
-489.046 -102.349 633.998
453.03 210.901 561.176
-477.19 148.902 732.992
-487.976 -106.757 427.012
227.663 -444.641 675.456
-256.191 429.129 627.592
-471.311 -201.366 400
-477.499 203.501 400.068
-481.161 -134.907 525.547
28.8706 498.634 556.05
-485.985 -117.085 759.188
-490.32 95.7521 570.471
-489.941 98.9568 759.725
-486.317 -114.52 570.86
-136.541 480.654 559.933
-190 -462.141 613.533
-516.881 -16.0462 400
-498.57 32.7019 570.516
-498.697 30.0718 766.452
-355.212 351.793 439.247
-121.47 484.971 424.567
-255.933 429.125 721.388
-43.2961 -498.037 438.792
143.82 -478.782 753.825
128.837 482.801 754.056
258.729 427.467 537.814
-480.158 -138.225 431.253
-0.440918 499.989 532.848
-375.543 329.142 436.115
-243.986 -436.317 456.886
-363.168 343.278 561.015
-254.591 430.019 704.913
258.847 427.365 717.657
-480.023 -139.239 537.205
-279.761 413.976 493.407
-477.382 -146.874 691.542
-499.032 26.8916 630.69
-498.77 29.7065 546.714
336.162 -369.538 555.41
-491.027 -93.7048 461.184
-493.213 80.1246 664.646
430.967 -252.382 457.007
-496.403 56.3323 438.535
-497.446 48.7704 677.672
458.976 197.859 505.602
457.333 200.626 732.292
413.327 280.96 570.021
-511.587 32.1071 400
47.7325 497.597 526.128
-483.04 128.113 574.273
-483.577 160.67 400
-485.209 120.071 484.618
336.578 -369.056 510.714
339.551 -366.781 698.641
-488.339 -106.191 617.931
464.033 185.577 562.456
-288.592 -407.655 696.678
426.647 -260.203 505.169
428.059 -257.673 700.332
28.5363 498.691 670.593
-462.629 188.042 409.07
482.435 130.656 640.282
482.589 128.599 451.137
141.452 -478.946 455.533
-481.096 -134.314 766.061
-481.611 -133.492 577.29
-483.014 127.993 604.198
-469.946 -169.41 548.937
-38.0204 498.092 546.284
-485.189 120.113 489.835
-488.378 -105.997 539.982
465.071 182.908 591.777
-288.053 -408.11 666.491
426.817 -259.715 671.331
28.9245 498.697 687.343
-462.879 187.652 450.253
481.964 131.564 753.692
482.794 128.644 565.06
-89.871 -491.296 711.359
-483.003 -127.457 519.941
-499.313 -15.5884 555.855
-499.398 -19.8989 746.129
-457.32 201.066 556.409
404.255 293.794 547.843
-365.71 340.684 648.207
-256.043 429.112 559.265
259.406 426.944 496.087
-480.781 -135.549 408.695
67.2082 495.411 750.589
-486.047 -124.465 400
-82.1559 505.948 400
29.1138 498.852 439.539
-489.725 99.0939 595.125
-485.565 -117.736 596.072
-486.986 -113.989 400.301
-498.707 33.9155 698.857
-498.195 35.9568 510.609
442.833 -231.617 516.844
441.575 -233.721 705.693
-232.629 442.245 642.747
-499.284 -12.4064 492.855
-499.582 -14.9954 693.607
224.516 446.63 733.794
125.387 483.342 426.714
-211.81 452.624 616.599
-498.939 -24.3551 481.254
-498.983 -26.8497 663.926
-175.587 -467.961 694.275
421.145 269.02 655.303
-171.672 468.935 743.653
-424.716 263.481 468.652
-419.463 271.588 563.203
-420.636 269.093 757.116
-494.694 71.8304 475.045
-227.294 444.813 681.227
457.511 201.242 510.342
79.5481 493.265 717.699
-480.637 -135.938 745.149
-481.605 -133.307 549.888
11.4624 499.843 748.219
-364.337 341.614 429.489
-246.772 434.082 430.253
-483.896 -123.137 423.887
-484.821 -120.858 613.177
277.682 415.382 745.536
25.6159 -498.841 753.659
384.824 318.73 594.999
-496.442 56.3522 460.578
458.025 199.339 662.628
459.128 197.633 477.94
-479.515 -141.162 493.978
-482.178 -131.354 675.953
5.80603 499.812 507.75
-499.481 -18.7103 753.653
-499.304 -16.1459 559.064
224.122 446.584 615.765
-294.378 403.726 603.654
-457.203 201.377 564.717
404.758 293.145 531.617
-231.654 442.587 711.809
-499.494 -15.5622 654.166
-499.216 -12.7062 460.095
223.444 447.117 712.187
-457.648 200.793 661.769
-456.031 203.672 471.91
404.01 294.396 436.206
125.107 483.475 460.393
-212.012 452.581 588.644
-499.015 -27.606 613.149
-498.802 -24.7626 412.34
-175.186 -468.198 750.68
221.27 -447.7 729.996
421.432 268.684 688.559
-84.6007 -492.402 426.589
-423.113 265.75 600.66
-424.513 263.606 405.545
-480.018 -138.443 667.383
-497.046 50.867 747.706
-498.153 41.3569 727.047
-497.531 44.5793 531.708
423.521 264.741 490.316
-434.969 -245.932 574.025
-222.496 447.167 693.62
357.189 -349.583 430.159
170.469 469.948 748.864
-495.947 62.3396 496.347
-496.832 53.3626 679.249
-476.43 149.952 504.469
-483.265 -127.598 676.906
-482.452 -129.387 482.208
277.563 415.639 634.275
-420.074 270.401 631.186
-495.184 64.6271 740.41
-225.653 445.866 563.81
458.967 198.295 409.978
457.435 200.828 637.667
-174.842 468.183 532.285
11.4016 -499.711 489.359
166.824 470.659 427.256
-492.979 80.3944 771.565
-490.477 -96.5135 402.766
-171.416 469.283 613.221
-226.751 -445.362 656.048
-42.9781 497.769 560.81
377.845 326.569 766.307
376.238 328.897 570.936
-496.592 56.5406 562.042
-497.399 48.2761 747.468
-399.506 -299.978 683.805
412.77 281.63 646.018
-245.741 434.861 523.162
293.183 404.851 478.087
278.589 414.938 653.534
-422.292 266.68 705.183
-495.303 65.3929 619.988
-340.228 -365.745 704.034
-467.222 177.556 513.621
456.989 202.212 562.492
-383.93 319.552 703.903
-423.792 -285.659 400
232.746 -442.297 565.268
344.598 -362.015 573.389
-432.493 260.603 400
11.285 -499.431 643.82
-491.805 89.4721 726.49
-489.385 -99.6747 726.91
-489.239 -102.318 531.771
453.271 210.444 651.333
449.491 -217.511 765.85
-481.917 132.349 547.322
-339.993 366.258 730.29
-499.162 -12.683 430.333
-499.427 -15.291 613.42
223.986 446.738 658.17
-479.098 -142.413 421.514
105.869 -488.137 441.044
91.6035 491.101 637.465
134.83 -480.935 432.803
-428.398 257.327 646.139
-426.336 260.551 451.326
-341.219 365.149 615.263
-478.492 144.518 709.986
-479.312 140.659 519.448
-89.7462 -491.277 734.347
-483.227 -126.538 517.28
-307.609 393.825 427.828
-485.816 -116.687 591.06
-486.002 -114.519 404.139
-490.176 94.8778 403.334
-489.91 98.0977 591.879
-498.277 34.62 496.235
-498.776 32.3001 690.185
337.562 -368.658 742.111
-487.792 -108.75 592.086
21.2097 504.835 400
-482.127 131.236 646.283
-175.233 467.946 580.063
-443.008 231.264 505.125
-492.962 81.1794 722.503
-490.854 -93.7973 544.363
-475.65 153.276 765.502
-475.011 155.01 574.397
-479.788 -139.169 670.781
-223.496 447.154 457.185
-497.604 43.7548 534.491
-498.123 41.666 724.506
-372.533 -333.274 480.686
451.934 213.006 768.97
-187.495 463.086 761.748
-352.422 354.419 502.454
-450.034 217.01 621.915
155.839 474.784 610.795
154.268 475.248 415.407
-170.674 469.551 615.92
-479.625 139.25 457.206
-226.135 -445.673 658.282
-43.5543 497.738 558.458
377.316 327.166 763.761
376.44 328.663 573.962
-497.367 48.456 751.496
-496.646 56.0423 558.878
-398.968 -300.712 688.559
412.808 281.587 642.947
-480.974 -135.725 603.638
-481.586 -132.36 414.872
16.6527 499.373 549.832
-476.287 -150.654 657.332
-39.4184 -498.366 442.898
466.002 180.363 756.045
7.94553 -499.797 475.229
69.8673 -494.462 745.043
-490.661 92.9017 460.338
-487.063 -110.68 460.285
-486.57 -114.094 648.855
-490.465 95.7646 649.6
-498.573 30.7021 483.451
-488.591 -105.303 563.996
-492.495 84.3552 564.124
-235.209 -440.894 522.317
332.419 372.804 682.291
-384.414 319.245 432.858
461.289 192.362 433.849
430.544 -253.466 547.114
-256.261 428.851 750.987
-481.345 -138.238 400.469
-482.627 128.43 751.157
-288.783 -407.904 525.764
427.851 -258.141 523.337
-0.269592 499.723 741.855
53.3088 -496.785 708.999
-296.339 402.548 717.948
-294.429 403.521 528.909
-497.247 47.274 496.531
-471.286 -165.357 472.327
-394.714 306.337 416.931
-33.8792 498.502 706.543
336.463 -369.076 477.371
-493.334 79.9799 609.856
-491.009 -94.2164 417.977
-234.626 -441.19 655.323
332.985 372.914 431.334
430.474 -253.185 438.611
429.763 -255.17 633.782
-481.922 -132.191 570.815
-480.682 -135.698 760.111
89.8046 491.341 694.047
31.6217 -498.482 474.725
159.673 -473.509 538.15
-337.938 367.592 411.632
515.306 20.1633 643.421
-497.849 -42.9999 565.71
-479.122 -142.431 436.597
497.344 50.4186 505.04
-107.857 488 615.199
-108.264 502.915 400
-481.372 134.295 574.521
199.693 458.293 450.686
483.446 126.775 664.195
-91.6586 -490.924 726.899
-483.062 -126.769 460.44
-460.805 192.899 542.323
441.749 -233.196 747.937
442.538 -232.298 559.453
-480.555 137.007 582.943
-499.203 -12.557 450.833
-499.467 -15.5247 638.656
223.658 446.968 691.159
-423.313 265.757 506.76
-481.853 -132.259 700.476
-481.876 -132.563 595.521
-93.8073 490.99 729.808
340.83 385.782 400
-498.632 30.2814 496.865
-498.965 25.9122 681.37
-179.928 466.246 567.18
-120.916 485.093 435.1
-355.538 351.415 426.738
-496.929 -51.2657 418.709
-496.027 -60.8148 634.064
-498.387 -39.5276 409.288
-497.769 -43.1307 603.455
-479.209 -142.15 445.424
-480.969 134.593 412.214
141.359 -478.906 419.777
-481.79 -132.934 612.898
-482.45 -128.972 426.657
-483.49 -126.277 621.925
-494.842 70.2438 512.034
-226.305 445.479 595.043
457.796 200.63 499.106
-495.995 62.2151 477.303
-496.679 54.5862 672.251
-474.679 155.265 442.341
-480.262 -138.347 555.011
-1.10114 499.923 693.391
51.7811 -497.089 657.137
53.8484 -496.661 468.641
-294.254 403.537 480.92
382.078 322.202 638.723
-497.136 47.5322 447.572
-497.214 50.8221 643.195
-482.366 -129.246 418.063
361.893 344.612 568.14
-470.102 -169.417 630.121
-36.7989 498.25 676.23
-485.127 119.744 571.449
337.222 -368.71 604.972
-488.254 -105.648 718.743
464.031 185.357 667.173
422.478 266.894 643.088
-477.385 -146.737 712.302
-476.793 -149.84 523.934
321.562 382.414 538.464
-432.553 -249.526 756.697
-154.217 -479.666 400
-168.753 470.309 589.092
-168.981 473.301 400
-372.951 332.782 709.59
-482.221 130.208 731.964
230.366 443.339 543.456
-398.575 301.095 459.5
-470.939 -165.957 407.943
-393.448 307.95 622.436
-34.3027 498.545 732.422
336.394 -369.189 497.687
-491.068 -93.9492 403.744
-493.356 79.991 576.878
-493.396 77.3257 771.869
430.159 -254.416 619.291
430.591 -252.947 430.101
-480.13 -138.858 540.717
-1.36502 499.852 708.968
54.0371 -496.712 694.765
-295.961 402.653 631.977
-478.66 143.909 699.811
-494.582 -69.7498 511.202
-288.432 -407.673 739.697
427.418 -259.006 550.037
-256.551 428.814 682.724
-480.072 -138.494 421.116
-479.892 -138.295 756.501
-477.095 148.607 635.96
-477.735 145.309 441.652
-481.959 131.796 480.722
-457.608 201.159 720.269
-456.177 203.61 531.504
404.357 293.891 471.645
-481.672 -132.495 756.803
-479.633 -140.39 556.367
-482.661 128.91 670.296
-485.587 -116.971 506.942
-489.682 98.4678 508.072
-388.358 314.758 459.503
-386.673 316.285 654.095
465.217 182.531 681.838
426.995 -259.665 604.15
31.1061 498.675 489.867
9.89536 -499.481 636.657
-491.741 89.8464 733.311
-489.114 -102.94 536.737
-489.326 -99.9318 732.499
453.238 210.487 658.244
-477.226 -147.234 715.298
-476.793 -149.859 520.904
25.6608 -498.983 675.788
385.797 317.677 649.246
-481.533 -132.709 432.926
-480.701 -136.505 621.344
-497.364 45.9393 501.194
-36.2881 498.191 481.237
-123.596 -484.271 682.559
364.753 341.417 673.252
-150.649 -476.095 758.256
-166.575 471.152 566.805
419.093 302.578 400
442.963 231.458 663.857
454.924 -206.404 506.06
473.4 -160.334 589.279
-484.258 122.345 688.891
8.10046 -499.776 458.038
72.2668 -494.125 750.694
-490.584 93.3615 466.424
-486.637 -112.443 466.862
-486.804 -113.29 666.786
-490.638 95.0343 667.171
2.37903 499.488 421.216
-498.878 27.8223 700.926
-498.77 28.1721 478.558
70.8882 -494.501 648.805
-490.908 92.5414 555.678
-490.623 95.873 745.312
-487.228 -110.74 555.57
-486.546 -114.307 743.868
456.508 -202.993 564.455
-4.0968 499.922 483.546
-478.089 -144.598 687.445
-477.665 -147.197 492.517
324.038 -380.417 555.797
-262.393 424.899 766.091
322.238 381.987 662.34
0.747253 -499.734 543.707
364.59 -341.852 618.977
365.468 -340.339 424.091
-493.864 -76.1906 741.712
-497.785 -45.5955 472.026
222.063 -447.741 517.747
420.694 269.112 474.945
-228.503 -444.025 426.984
-462.646 188.846 733.19
-461.502 191.255 536.745
-487.828 107.565 744.615
-76.3396 493.777 705.964
-478.638 -144.129 403.656
322.066 382.082 569.387
-481.919 -131.952 715.175
-61.0013 496.153 472.111
-222.615 447.156 670.153
-465.039 182.689 463.011
298.808 400.505 453.776
-496.748 53.0014 751.526
-495.935 61.4564 568.044
214.12 451.483 585.599
-464.477 184.401 631.596
-464.913 182.884 441.902
298.404 400.926 494.449
-243.081 436.205 447.127
-496.543 54.2397 770.926
-495.74 62.8508 570.779
214.659 451.296 624.798
-482.622 -129.043 526.619
11.1891 -499.469 624.451
-493.222 107.432 400
-489.045 -102.713 597.241
449.412 -217.745 747.568
20.388 499.174 666.842
488.7 -126.153 400
-175.033 468.252 460.838
-491.616 88.4413 513.074
-489.98 -96.6868 715.317
-490.066 -98.212 512.929
453.445 210.077 643.099
-480.948 -135.2 451.071
-498.558 32.3736 549.617
-498.771 29.2429 738.28
-490.107 98.3553 733.005
-486.039 -115.382 537.309
-485.904 -117.413 733.14
-490.362 95.2157 538.046
382.764 321.112 757.103
381.645 322.587 561.673
-497.111 50.2129 552.802
-239.534 438.176 430.928
-265.061 436.892 400
-492.447 83.3687 436.839
-488.616 -104.252 436.441
-499.465 -6.96187 510.957
-499.758 -9.6344 710.469
-496.832 53.595 550.704
-496.333 56.2154 739.31
-421.082 269.192 522.923
-162.704 -472.434 561.206
-117.957 485.463 628.877
220.229 448.749 730.276
277.807 415.493 653.102
-225.977 445.371 727.433
457.88 200.152 560.171
11.3383 -499.657 519.352
-490.701 -94.0707 597.998
-490.317 -97.2029 408.751
71.6416 -494.674 499.46
-491.107 91.9195 597.928
-491.293 89.123 410.129
-487.405 -108.919 409.421
-486.982 -112.05 597.955
-4.34259 499.821 452.648
-495.423 -62.5093 432.823
350.494 356.236 654.903
-379.82 324.58 511.262
-440.781 235.426 680.222
-441.428 234.001 489.874
-476.67 -150.573 448.284
-477.037 -148.297 643.737
324.263 380.002 435.836
-210.8 453.167 591.608
-498.939 -26.8466 687.995
-498.957 -25.3091 504.94
241.639 -436.973 424.489
125.211 483.431 450.715
-174.324 -468.47 717.523
220.937 -447.884 721.018
421.774 268.111 677.535
-42.8052 -497.568 726.967
239.501 -438.731 694.504
-479.021 -142.372 557.854
141.474 -478.963 468.213
-480.543 -136.193 753.741
-481.779 -132.722 564.686
-148.131 -477.242 563.58
-162.081 472.427 759.337
11.2019 -499.632 535.315
-490.632 -94.0522 636.852
-490.713 -95.52 442.66
167.051 470.663 472.295
326.783 378.051 604.702
-433.594 247.835 483.594
-336.142 -369.908 502.127
-467.472 176.554 573.887
143.303 -478.604 573.588
128.477 482.852 574.292
420.368 269.742 510.3
-492.591 83.5203 750.978
-491.952 87.1599 561.738
448.577 -220.092 587.004
-66.7167 494.947 750.204
-224.565 -446.422 643.947
477.578 146.563 639.134
-482.124 -131.038 525.601
-484.958 119.603 679.198
337.268 -368.756 640.395
-488.245 -105.586 730.136
464.093 185.455 607.307
-461.741 190.295 449.84
481.836 131.538 438.996
481.369 134.237 635.814
-498.157 41.3709 729.978
-497.548 44.5748 540.697
423.547 264.605 462.226
422.523 266.874 658.255
-480.19 -138.694 523.619
-0.172058 499.637 437.882
335.43 -369.828 406.331
-491.868 86.3864 436.828
-492.764 83.5384 624.451
-488.626 -104.627 624.843
-175.203 -467.797 537.942
461.18 192.84 468.126
136.941 -480.613 696.997
-279.39 414.118 728.004
-74.0017 494.097 705.429
-478.963 -143.176 459.431
322.253 382.042 625.658
-269.369 420.524 727.616
-455.64 -205.472 529.115
-463.549 186.465 530.275
-482.833 128.783 595.856
-485.201 120.367 450.355
-488.417 -105.913 549.478
465.331 182.249 601.112
-289.459 -407.068 680.932
427.754 -258.221 679.578
116.123 486.064 648.229
-349.382 357.023 670.662
29.0536 498.622 648.585
-462.556 188.336 435.778
481.931 131.611 763.639
482.774 128.75 568.73
-51.7679 497.241 629.526
-488.551 -105.229 602.987
-491.808 86.4249 408.737
-492.509 84.6691 603.868
-234.518 -441.134 472.21
332.836 372.598 613.838
431.973 -251.284 640.199
-481.69 -132.544 739.601
387.272 315.874 660.054
-485.637 -116.276 442.062
-489.533 98.6092 442.649
428.36 -257.508 610.651
-172.112 469.204 523.033
-479.503 140.228 550.323
-226.582 -445.564 732.098
-42.3596 497.673 472.573
-378.508 326.179 744.432
377.073 327.709 664.409
376.109 329.206 470.002
481.658 -132.235 763.182
481.092 -135.162 567.923
-496.672 55.5545 604.461
-496.593 53.3199 408.266
38.5269 -497.974 504.292
413.108 281.214 543.56
-322.841 -381.42 552.96
457.765 199.72 711.17
459.079 197.526 525.292
-496.171 59.4411 588.898
-495.206 68.6469 401.944
-471.303 -165.292 469.113
-33.6242 498.489 695.922
-395.063 305.865 421.174
-393.186 308.311 610.502
-328.603 376.315 553.467
-397.823 302.285 504.542
-420.77 -294.808 400
-268.215 -421.908 770.348
351.488 -355.253 541.204
-429.543 275.46 400
425.943 -261.393 490.545
-351.846 -377.005 400
-473.472 158.96 404.429
-188.392 462.509 424.229
-413.867 279.957 676.335
-253.306 -430.53 702.384
432.515 -250.595 712.433
-450.606 215.296 757.601
156.144 474.774 567.525
-496.691 52.4968 425.141
-496.582 56.097 613.139
458.437 197.864 774.309
37.824 -497.93 449.354
412.878 281.603 601.679
-492.659 84.2515 659.964
-488.59 -104.465 660.347
-491.958 86.2505 471.463
-235.502 -440.555 427.32
333.102 372.426 587.003
-383.737 320.263 529.079
462.016 190.679 529.71
431.062 -252.908 643.137
-480.252 -138.332 495.35
-1.25421 499.802 466.077
-497.301 49.6255 629.571
-497.175 46.787 435.639
-450.078 -217.359 760.792
-451.846 -213.303 565.231
52.2754 -499.398 400
-231.861 461.381 400
-93.9862 490.389 425.833
-498.68 47.7901 400
-496.805 -141.137 400
-497.625 44.7264 588.973
422.502 266.418 514.341
-372.011 -333.545 593.863
453.178 210.222 469.575
-256.276 428.868 738.863
-43.1198 -498.019 467.915
258.584 427.391 460.404
-479.521 -141.018 461.932
-481.863 -132.49 657.879
32.6944 -498.556 562.38
160.491 -473.25 637.36
-337.055 368.792 577.597
-497.834 44.8734 709.019
422.394 266.501 489.363
-477.224 -146.987 756.166
335.181 -372.791 400
321.841 382.309 589.369
323.171 386.734 400
-463.745 -186.167 635.913
-468.972 173.266 408.83
-496.534 -56.94 663.288
-495.802 -60.235 469.962
-172.222 469.344 430.643
-361.883 344.276 402.524
378.098 326.839 564.992
481.776 -132.519 663.516
480.896 -135.221 474.689
-496.589 55.5363 504.398
-497.437 48.527 708.44
134.117 481.275 704.163
215.088 464.863 400
38.1103 -497.839 412.501
412.695 281.525 445.173
-402.976 326.598 400.245
-226.12 445.228 762.608
458.65 198.088 619.176
-481.902 -131.548 475.274
-480.95 -135.425 664.163
-67.2643 495.434 412.785
-497.216 49.4178 762.542
-222.41 -447.709 750.791
-40.4323 497.819 468.782
-498.205 41.5809 765.424
-497.576 45.0494 576.687
423.002 266.164 669.907
-280.303 413.788 582.444
-476.651 -149.762 610.295
334.122 -371.432 581.216
321.966 381.965 770.186
239.145 -438.81 742.379
-479.303 -141.749 510.701
-165.84 485.299 400
-118.57 485.652 415.271
-378.561 -326.301 573.286
-288.405 408.214 691.052
137.349 480.457 613.061
-473.283 159.771 755.481
-484.858 119.938 688.148
-488.327 -105.193 726.513
464.272 185.112 597.082
-463.065 188.093 638.431
-461.864 189.968 440.877
481.207 134.738 640.249
482.075 130.543 434.929
-279.745 414.17 574.038
-476.729 -149.603 595.158
-312.842 -399.332 400
-311.967 -390.275 601.32
-323.947 383.225 400
387.232 -315.448 702.489
385.253 -318.466 507.484
-53.4143 -496.905 617.692
-354.055 352.297 691.039
-402.812 295.464 544.217
-403.936 294.493 733.5
-486.179 116.262 472.828
-486.539 113.441 653.891
-471.3 -165.62 529.349
-138.955 479.772 486.789
-395.226 305.901 504.983
-393.7 307.43 692.802
-33.3063 498.401 469.478
335.369 -370.523 666.076
-492.195 86.4285 750.945
-493.814 77.1809 556.851
-499.624 -0.465454 711.804
-499.753 2.77374 524.123
-196.295 459.554 647.092
223.398 461.31 400
11.2622 -499.296 717.45
167.976 470.446 535
-490.167 -96.7714 606.843
-489.798 -99.2711 406.241
-485.143 119.427 604.346
336.794 -369.036 581.582
-488.27 -105.828 692.17
463.548 186.627 635.229
426.609 -260.194 626.216
-462.979 188.003 576.025
-345.147 361.275 663.819
-346.307 360.222 468.068
412.452 -314.492 400
-172.538 469.146 472.508
199.729 476.488 400
481.708 132.667 520.222
-499.765 44.6889 400
-497.919 41.2296 594.368
-502.111 14.7495 400
-496.892 -149.92 400.186
-42.3726 -497.61 723.187
240.106 -438.408 697.039
-479.258 -141.569 562.672
-279.34 414.38 538.197
-476.584 -149.709 653.838
-481.683 -132.53 745.544
226.414 -445.295 658.835
-255.993 429.225 657.959
260.264 426.193 402.932
-481.043 -135.066 483.983
363.266 342.847 756.319
-489.426 100.5 579.845
-488.672 103.978 770.133
379.578 346.406 400
-379.905 324.366 467.685
417.113 -274.697 729.854
416.158 -276.81 540.719
-146.036 477.593 484.195
-433.725 -247.384 775.37
236.445 -440.027 480.447
-167.9 470.663 567.883
-477.6 -147.771 432.565
-478.088 -144.969 628.611
